# .PCD v0.7 - Point Cloud Data file format
VERSION 0.7
FIELDS x y z intensity
SIZE 4 4 4 4
TYPE F F F F
COUNT 1 1 1 1
WIDTH 1316
HEIGHT 1
VIEWPOINT 0 0 0 1 0 0 0
POINTS 1316
DATA ascii
0.43334389 -0.12229726 0.80668098 32
0.42595252 -0.12029155 0.66085345 33
0.42849866 -0.12109135 0.5610159 34
0.42633149 -0.11919431 0.51481551 32
0.41526195 -0.11617763 0.43008482 32
0.41281918 -0.11557191 0.36567512 32
0.41941404 -0.11749714 0.314556 30
0.46056682 -0.12911262 0.2815733 19
0.46682209 -0.13095407 0.2324532 18
0.47296146 -0.1326763 0.18473415 12
0.47446805 -0.13318826 0.13718958 7
0.42031437 -0.11830337 0.4700515 32
0.40713218 -0.11466974 0.3915292 32
0.42079502 -0.11859719 0.34252152 34
0.46848482 -0.13203812 0.31246746 29
0.47320944 -0.13345887 0.26026443 18
0.47261077 -0.13337907 0.20915711 17
0.48121148 -0.13589703 0.16195664 8
0.48532504 -0.13715018 0.11402003 8
0.048637789 -0.013781445 4.1991138 38
0.55541277 -0.15737538 3.6702929 30
0.50788653 -0.14400467 2.5614645 32
0.46508223 -0.13195577 1.5926728 30
0.44830623 -0.12728053 1.1574531 31
0.43576831 -0.123803 0.89747143 30
0.42559716 -0.12099365 0.72247821 31
0.42727879 -0.12155233 0.60849553 32
0.24126931 -0.068772905 4.1774468 39
0.43450594 -0.12393627 4.1709032 40
0.48555663 -0.13858934 1.9816455 31
0.45554262 -0.13010862 1.3425457 31
0.44534835 -0.12728108 1.0215201 32
0.43542185 -0.12452631 0.81094694 32
0.42842695 -0.12260672 0.66484344 33
0.42807335 -0.12258635 0.5610159 34
0.42591283 -0.12068176 0.51481551 32
0.41485387 -0.11762646 0.43008482 31
0.41241324 -0.11701221 0.36567512 32
0.41900137 -0.11896046 0.314556 30
0.46011335 -0.13071951 0.2815733 18
0.46636215 -0.1325828 0.2324532 19
0.47249547 -0.13432644 0.18473415 12
0.47400022 -0.13484366 0.13718958 7
0.41989887 -0.11976983 0.4700515 33
0.40672943 -0.11609019 0.3915292 32
0.42037851 -0.12006532 0.34252152 34
0.46802109 -0.13367264 0.31246746 30
0.47274074 -0.13510987 0.26026443 19
0.47214231 -0.13502799 0.20915711 17
0.48073414 -0.13757594 0.16195664 7
0.4896462 -0.14021884 0.11422156 7
0.048589386 -0.01395114 4.1991138 37
0.55560684 -0.15952761 3.6752322 31
0.50835943 -0.14605783 2.5663595 31
0.4646188 -0.13357839 1.5926728 30
0.44973668 -0.12938477 1.1620556 31
0.43533349 -0.12532339 0.89747143 30
0.42517221 -0.12247852 0.72247821 32
0.42685187 -0.12304308 0.60849553 32
0.24102777 -0.069614664 4.1774468 39
0.43407068 -0.12545222 4.1709032 42
0.4862774 -0.14063263 1.9864849 31
0.45508566 -0.13169797 1.3425457 31
0.44490132 -0.12883486 1.0215201 32
0.43498451 -0.12604544 0.81094694 32
0.42799637 -0.12410146 0.66484344 33
0.42764285 -0.12407987 0.5610159 34
0.42548898 -0.12216774 0.51481551 32
0.41444078 -0.11907385 0.43008482 31
0.41200227 -0.11845108 0.36567512 31
0.41858357 -0.12042233 0.314556 30
0.45965424 -0.13232481 0.2815733 18
0.46589649 -0.13420989 0.2324532 18
0.4720237 -0.13597493 0.18473415 12
0.47352663 -0.13649741 0.13718958 8
0.42306522 -0.12227149 0.47337702 33
0.4063217 -0.11750924 0.3915292 32
0.41995683 -0.12153199 0.34252152 35
0.46755162 -0.13530551 0.31246746 30
0.47226623 -0.13675921 0.26026443 18
0.46699953 -0.13532244 0.20798479 17
0.47549483 -0.13787407 0.16126597 7
0.48915377 -0.14192717 0.11422156 7
0.048540391 -0.014120663 4.1991138 37
0.55579275 -0.16168311 3.6801713 31
0.50882417 -0.14811602 2.571255 31
0.46558282 -0.13561685 1.5974449 30
0.44928232 -0.13095385 1.1620556 31
0.43489337 -0.12684222 0.89747143 30
0.42744341 -0.12475029 0.72661114 31
0.42641979 -0.1245323 0.60849553 33
0.24078332 -0.070455588 4.1774468 38
0.43363014 -0.12696666 4.1709032 42
0.48578355 -0.14232919 1.9864849 31
0.45462316 -0.13328572 1.3425457 31
0.44444889 -0.13038708 1.0215201 32
0.43454191 -0.12756304 0.81094694 32
0.42756057 -0.12559469 0.66484344 33
0.42720711 -0.12557186 0.5610159 33
0.42505991 -0.12365223 0.51481551 33
0.41402259 -0.12051979 0.43008482 32
0.41158628 -0.11988852 0.36567512 31
0.41816068 -0.12188271 0.314556 30
0.45918953 -0.13392849 0.2815733 18
0.46542519 -0.13583535 0.2324532 18
0.46683064 -0.13624555 0.18380153 10
0.46826702 -0.13675344 0.1367425 7
0.42263582 -0.12374752 0.47337702 33
0.40590906 -0.11892685 0.3915292 32
0.41953003 -0.12299716 0.34252152 35
0.46707645 -0.13693674 0.31246746 30
0.47178593 -0.1384069 0.26026443 18
0.46652433 -0.13695173 0.20798479 18
0.47501066 -0.13953301 0.16126597 7
0.49344853 -0.14504264 0.11442309 7
0.048490807 -0.014290015 4.1991138 37
0.55597025 -0.16384184 3.6851106 31
0.508304 -0.14989126 2.571255 32
0.46510661 -0.13724121 1.5974449 29
0.44882247 -0.13252135 1.1620556 31
0.43444794 -0.1283595 0.89747143 30
0.42700538 -0.12624158 0.72661114 31
0.42598248 -0.12602003 0.60849553 33
0.2405359 -0.071295649 4.1774468 38
0.4331843 -0.12847953 4.1709032 40
0.48648879 -0.14438166 1.9913243 31
0.45415515 -0.13487184 1.3425457 31
0.44399101 -0.1319377 1.0215201 32
0.43409395 -0.1290791 0.81094694 32
0.42711955 -0.1270864 0.66484344 33
0.42676619 -0.12706234 0.5610159 33
0.42462569 -0.12513523 0.51481551 32
0.41733274 -0.12306519 0.43322328 32
0.4111653 -0.1213245 0.36567512 31
0.41773266 -0.12334163 0.314556 31
0.45871922 -0.13553055 0.2815733 19
0.46954843 -0.13881919 0.23386323 19
0.46635225 -0.13787425 0.18380153 10
0.46778679 -0.13838716 0.1367425 7
0.42220131 -0.12522204 0.47337702 33
0.40549147 -0.12034301 0.3915292 32
0.41909814 -0.12446085 0.34252152 35
0.46659562 -0.13856633 0.31246746 30
0.47129992 -0.1400529 0.26026443 18
0.46138445 -0.13719401 0.20681247 18
0.47926712 -0.14260255 0.16195664 7
0.49293926 -0.14676423 0.11442309 7
0.048440628 -0.014459193 4.1991138 37
0.55613947 -0.16600376 3.6900496 31
0.5087533 -0.15195604 2.5761499 32
0.46462473 -0.13886391 1.5974449 29
0.4502289 -0.13464698 1.1666582 31
0.43629169 -0.13056186 0.90186054 30
0.4265621 -0.12773134 0.72661114 31
0.42554 -0.12750623 0.60849553 33
0.24028558 -0.072134838 4.1774468 38
0.43273318 -0.12999083 4.1709032 40
0.48598179 -0.14607894 1.9913243 31
0.45368159 -0.13645633 1.3425457 31
0.44352779 -0.13348672 1.0215201 32
0.43364072 -0.1305936 0.81094694 32
0.42667332 -0.12857655 0.66484344 33
0.42632008 -0.12855124 0.5610159 34
0.42418632 -0.12661669 0.51481551 32
0.4169006 -0.1245212 0.43322328 32
0.4107393 -0.12275898 0.36567512 31
0.4172996 -0.12479904 0.314556 30
0.46268466 -0.13846004 0.28344631 18
0.46906099 -0.14045736 0.23386323 18
0.47057393 -0.1409104 0.18473415 11
0.46730089 -0.14001921 0.1367425 7
0.42176163 -0.12669504 0.47337702 33
0.4050689 -0.12175772 0.3915292 32
0.41866115 -0.12592302 0.34252152 35
0.4661091 -0.14019421 0.31246746 30
0.47533 -0.14305809 0.26190794 18
0.46090269 -0.13880371 0.20681247 17
0.47876644 -0.14427462 0.16195664 7
0.49242395 -0.14848402 0.11442309 7
0.048389859 -0.014628194 4.1991138 37
0.5563004 -0.1681689 3.6949892 31
0.50919437 -0.15402579 2.5810454 32
0.46556583 -0.14091733 1.6022168 30
0.44975615 -0.13621777 1.1666582 31
0.43583331 -0.132084 0.90186054 31
0.42611364 -0.12921955 0.72661114 31
0.42815951 -0.12992157 0.61233312 33
0.24003232 -0.072973154 4.1774468 38
0.43227679 -0.13150056 4.1709032 40
0.48546892 -0.14777443 1.9913243 31
0.4548533 -0.13854192 1.3472385 31
0.44514149 -0.13566875 1.0260212 32
0.43318227 -0.13210648 0.81094694 32
0.42622194 -0.13006513 0.66484344 33
0.42586875 -0.13003859 0.5610159 34
0.42715544 -0.12912855 0.51832008 32
0.42018908 -0.12710266 0.43636179 32
0.41431043 -0.12540336 0.36841661 31
0.41686141 -0.12625493 0.314556 30
0.46219853 -0.14007427 0.28344631 18
0.46856785 -0.14209384 0.23386323 17
0.47007921 -0.14255217 0.18473415 11
0.4668093 -0.14164953 0.1367425 7
0.4213168 -0.12816648 0.47337702 33
0.40464139 -0.12317093 0.3915292 32
0.41821903 -0.12738365 0.34252152 35
0.46561688 -0.14182036 0.31246746 30
0.47482774 -0.14471643 0.26190794 18
0.46041539 -0.1404117 0.20681247 18
0.47825995 -0.14594495 0.16195664 9
0.49190265 -0.15020199 0.11442309 7
0.048338503 -0.014797017 4.1991138 37
0.55571002 -0.17010973 3.6949892 31
0.50865364 -0.15580228 2.5810454 32
0.46507108 -0.1425416 1.6022168 31
0.45114574 -0.1383597 1.1712606 31
0.43536961 -0.13360454 0.90186054 31
0.42835003 -0.13153219 0.73074406 31
0.42770338 -0.13141532 0.61233312 33
0.23977613 -0.073810577 4.1774468 38
0.43181512 -0.13300869 4.1709032 40
0.48495016 -0.14946812 1.9913243 31
0.45436695 -0.14012882 1.3472385 31
0.44466522 -0.13722175 1.0260212 32
0.43521038 -0.13438724 0.81521285 32
0.42864427 -0.13244167 0.66883349 33
0.42541221 -0.13152437 0.5610159 34
0.42670208 -0.1306188 0.51832008 32
0.41974282 -0.12856862 0.43636179 32
0.41387013 -0.12684882 0.36841661 32
0.41641816 -0.12770927 0.314556 31
0.46170676 -0.14168678 0.28344631 17
0.46806899 -0.14372858 0.23386323 17
0.46957871 -0.14419217 0.18473415 10
0.47107232 -0.14474078 0.13718958 7
0.42086685 -0.12963638 0.47337702 33
0.40420902 -0.12458263 0.3915292 32
0.41777185 -0.12884273 0.34252152 35
0.465119 -0.14344479 0.31246746 30
0.4743197 -0.14637299 0.26190794 17
0.46456671 -0.14345208 0.20798479 17
0.48247892 -0.14907539 0.16264732 7
0.49137533 -0.15191814 0.11442309 7
0.048286561 -0.014965659 4.1991138 37
0.55585498 -0.17227849 3.6999283 31
0.50907916 -0.15787846 2.5859406 31
0.4645707 -0.14416414 1.6022168 30
0.45065999 -0.13993365 1.1712606 31
0.43718767 -0.13583405 0.90624958 30
0.42788827 -0.13302661 0.73074406 31
0.42724204 -0.13290749 0.61233312 34
0.23951702 -0.074647106 4.1774468 38
0.43083936 -0.13435651 4.1659317 40
0.48562536 -0.15153444 1.9961637 31
0.45552227 -0.14222834 1.3519313 31
0.44418353 -0.1387731 1.0260212 32
0.43473864 -0.13590558 0.81521285 32
0.42817935 -0.13393711 0.66883349 33
0.42818588 -0.13402119 0.56469107 34
0.42624354 -0.13210748 0.51832008 32
0.4192915 -0.130033 0.43636179 32
0.41342485 -0.12829271 0.36841661 31
0.41596985 -0.12916206 0.314556 31
0.46563649 -0.14467309 0.28531936 17
0.4675644 -0.14536157 0.23386323 17
0.47376332 -0.14728875 0.18566677 10
0.47056422 -0.14638425 0.13718958 7
0.4204118 -0.13110469 0.47337702 33
0.40377167 -0.12599283 0.3915292 32
0.41731954 -0.13030024 0.34252152 35
0.46028319 -0.14371485 0.3103694 30
0.47380587 -0.14802781 0.26190794 17
0.46406314 -0.14507285 0.20798479 17
0.48195559 -0.15075864 0.16264732 7
0.49084201 -0.15363243 0.11442309 7
0.048234027 -0.015134119 4.1991138 37
0.55599159 -0.17445035 3.7048676 30
0.50949645 -0.15995952 2.5908358 31
0.46548873 -0.14623229 1.6069888 30
0.45203257 -0.14209175 1.1758631 31
0.43671089 -0.13735929 0.90624958 31
0.42742136 -0.13451943 0.73074406 31
0.42677552 -0.13439804 0.61233312 33
0.239255 -0.075482719 4.1774468 38
0.43036771 -0.13585959 4.1659317 40
0.48509344 -0.15322867 1.9961637 31
0.45666853 -0.14433762 1.3566241 31
0.44369641 -0.14032274 1.0260212 32
0.43426156 -0.13742228 0.81521285 32
0.42770922 -0.13543092 0.66883349 33
0.42771548 -0.13551503 0.56469107 34
0.42918253 -0.1346622 0.52182466 32
0.41512138 -0.13032989 0.43322328 32
0.41297448 -0.12973505 0.36841661 32
0.41551647 -0.13061328 0.314556 31
0.46512869 -0.14629757 0.28531936 18
0.46705419 -0.14699279 0.23386323 17
0.47324634 -0.14894161 0.18566677 10
0.47480035 -0.1495218 0.13763666 8
0.41995156 -0.1325714 0.47337702 33
0.40332943 -0.12740149 0.3915292 32
0.41686216 -0.13175617 0.34252152 35
0.45977873 -0.14532065 0.3103694 30
0.47778866 -0.1511047 0.26355144 18
0.46355391 -0.14669184 0.20798479 17
0.48142642 -0.15244006 0.16264732 8
0.4903028 -0.15534486 0.11442309 7
0.048180904 -0.015302395 4.1991138 37
0.55611974 -0.17662528 3.7098067 29
0.50893497 -0.16173702 2.5908358 31
0.46497542 -0.14785625 1.6069888 30
0.45153379 -0.14366877 1.1758631 31
0.43622875 -0.13888285 0.90624958 31
0.42694917 -0.13601059 0.73074406 31
0.42935762 -0.13686039 0.61617059 33
0.23899005 -0.076317407 4.1774468 38
0.42989087 -0.13736102 4.1659317 40
0.48575291 -0.15530381 2.0010033 31
0.45616192 -0.1459308 1.3566241 31
0.44527718 -0.14253435 1.0305225 32
0.436263 -0.13973284 0.81947875 32
0.42723387 -0.13692307 0.66883349 33
0.42723984 -0.13700719 0.56469107 34
0.42870986 -0.13615951 0.52182466 32
0.41466394 -0.13177815 0.43322328 32
0.4125191 -0.1311758 0.36841661 32
0.41505799 -0.13206291 0.314556 31
0.4646152 -0.14792028 0.28531936 17
0.46653822 -0.14862223 0.23386323 17
0.47272351 -0.15059264 0.18566677 9
0.47427556 -0.15117824 0.13763666 7
0.41948625 -0.13403648 0.47337702 33
0.40288228 -0.12880859 0.3915292 32
0.41639972 -0.13321047 0.34252152 35
0.45926869 -0.14692469 0.3103694 30
0.47725827 -0.15277156 0.26355144 17
0.46303904 -0.14830907 0.20798479 18
0.48089138 -0.15411963 0.16264732 8
0.48975754 -0.15705536 0.11442309 7
0.048127193 -0.015470484 4.1991138 37
0.5562396 -0.17880318 3.7147462 29
0.50933659 -0.16382432 2.595731 31
0.4644565 -0.14947842 1.6069888 30
0.45102954 -0.14524403 1.1758631 31
0.43574131 -0.14040473 0.90624958 31
0.42379352 -0.13663657 0.72661114 31
0.42887729 -0.13835828 0.61617059 33
0.23872221 -0.077151179 4.1774468 38
0.42940876 -0.13886081 4.1659317 39
0.48520783 -0.15699847 2.0010033 31
0.45729148 -0.14805375 1.3613169 31
0.44477695 -0.14408779 1.0305225 32
0.43577257 -0.14125481 0.81947875 32
0.42675331 -0.13841356 0.66883349 33
0.42675894 -0.13849771 0.56469107 34
0.42823195 -0.13765514 0.52182466 32
0.41420141 -0.1332248 0.43322328 33
0.41205871 -0.13261499 0.36841661 32
0.41459447 -0.13351092 0.314556 31
0.46409601 -0.1495412 0.28531936 17
0.47058225 -0.15172186 0.23527327 18
0.4675197 -0.15073447 0.18473415 9
0.4690055 -0.15130387 0.13718958 7
0.41901582 -0.13549997 0.47337702 33
0.40243015 -0.13021414 0.3915292 32
0.41593221 -0.13466316 0.34252152 35
0.45875302 -0.14852694 0.3103694 30
0.47672209 -0.15443659 0.26355144 17
0.46251851 -0.14992446 0.20798479 18
0.48035046 -0.1557973 0.16264732 7
0.48920631 -0.15876399 0.11442309 7
0.048072897 -0.015638385 4.1991138 36
0.55635095 -0.18098411 3.7196853 29
0.50972986 -0.16591638 2.6006262 31
0.46535119 -0.15156104 1.6117609 30
0.4505198 -0.14681754 1.1758631 31
0.43524855 -0.1419249 0.90624958 31
0.42331401 -0.13811506 0.72661114 31
0.4283917 -0.13985449 0.61617059 32
0.23845144 -0.077984005 4.1774468 38
0.42892143 -0.14035887 4.1659317 39
0.48585138 -0.15908234 2.0058427 31
0.45677191 -0.14964911 1.3613169 31
0.44427127 -0.14563948 1.0305225 31
0.43527687 -0.1427751 0.81947875 32
0.42626756 -0.13990237 0.66883349 33
0.42627293 -0.13998653 0.56469107 34
0.42774886 -0.13914911 0.52182466 32
0.41373384 -0.13466981 0.43322328 33
0.41159326 -0.13405253 0.36841661 32
0.41412592 -0.13495733 0.314556 31
0.46357119 -0.15116028 0.28531936 17
0.47004977 -0.15336359 0.23527327 17
0.46699071 -0.15236551 0.18473415 9
0.46847448 -0.15294009 0.13718958 7
0.41854027 -0.13696177 0.47337702 33
0.40197316 -0.13161808 0.3915292 32
0.4154596 -0.13611424 0.34252152 35
0.45391884 -0.14871438 0.30827135 30
0.47618011 -0.15609972 0.26355144 18
0.46199238 -0.15153806 0.20798479 17
0.47509861 -0.15592887 0.16195664 7
0.48864919 -0.16047066 0.11442309 7
0.04801802 -0.015806098 4.1991138 36
0.55645382 -0.18316798 3.7246246 29
0.51011473 -0.1680132 2.6055217 31
0.46481934 -0.15318449 1.6117609 30
0.45000455 -0.14838925 1.1758631 31
0.43475047 -0.14344335 0.90624958 31
0.4228293 -0.13959184 0.72661114 31
0.42790091 -0.141349 0.61617059 32
0.23817778 -0.078815877 4.1774468 37
0.42842889 -0.14185522 4.1659317 39
0.48648635 -0.1611726 2.0106821 31
0.45788479 -0.15178561 1.3660097 31
0.44376019 -0.14718938 1.0305225 32
0.4347758 -0.14429362 0.81947875 32
0.4257766 -0.14138946 0.66883349 33
0.4257817 -0.14147365 0.56469107 34
0.42726052 -0.14064139 0.52182466 32
0.41695821 -0.13733084 0.43636179 32
0.41112283 -0.13548842 0.36841661 32
0.41365227 -0.13640207 0.314556 31
0.46304071 -0.15277752 0.28531936 17
0.46951157 -0.15500341 0.23527327 17
0.466456 -0.15399465 0.18473415 9
0.46320912 -0.15301241 0.1367425 8
0.41805968 -0.13842191 0.47337702 33
0.40151131 -0.13302042 0.3915292 32
0.41498196 -0.13756362 0.34252152 35
0.45339698 -0.15029792 0.30827135 30
0.47563231 -0.15776095 0.26355144 17
0.46146059 -0.15314977 0.20798479 17
0.47455138 -0.15758632 0.16195664 8
0.48808604 -0.1621754 0.11442309 7
0.04796255 -0.015973613 4.1991138 33
0.5565483 -0.18535477 3.7295637 29
0.51049107 -0.17011468 2.6104167 31
0.46569785 -0.15527824 1.6165328 30
0.44948384 -0.14995916 1.1758631 31
0.43424711 -0.14496003 0.90624958 31
0.42233947 -0.14106695 0.72661114 31
0.42740491 -0.1428418 0.61617059 33
0.2379012 -0.079646796 4.1774468 37
0.42793113 -0.14334986 4.1659317 39
0.48592076 -0.16286978 2.0106821 31
0.45735213 -0.153383 1.3660097 31
0.44324368 -0.14873751 1.0305225 32
0.43426949 -0.14581038 0.81947875 32
0.42528048 -0.14287484 0.66883349 33
0.42528525 -0.14295906 0.56469107 34
0.42676699 -0.14213195 0.52182466 32
0.41647634 -0.13878547 0.43636179 32
0.41064739 -0.13692269 0.36841661 32
0.41317362 -0.13784516 0.314556 31
0.4625046 -0.15439291 0.28531936 17
0.46896765 -0.15664139 0.23527327 17
0.46591559 -0.15562196 0.18473415 9
0.4626722 -0.15462838 0.1367425 8
0.42111433 -0.14106634 0.47670251 33
0.40487695 -0.13570571 0.39447236 32
0.41449922 -0.13901134 0.34252152 35
0.45286956 -0.15187967 0.30827135 30
0.47507873 -0.15942025 0.26355144 17
0.46092317 -0.15475963 0.20798479 17
0.47399843 -0.15924184 0.16195664 7
0.48751697 -0.16387817 0.11442309 7
0.047865149 -0.016127005 4.1941142 33
0.55663419 -0.18754445 3.7345033 28
0.51085901 -0.17222089 2.6153121 31
0.46515301 -0.15690288 1.6165328 30
0.44895765 -0.15152723 1.1758631 31
0.4337385 -0.14647496 0.90624958 31
0.42451045 -0.14344116 0.73074406 31
0.42690367 -0.14433286 0.61617059 33
0.23762172 -0.080476746 4.1774468 37
0.42742813 -0.14484274 4.1659317 39
0.48653972 -0.16496861 2.0155215 31
0.45681393 -0.15497853 1.3660097 31
0.44478321 -0.15098354 1.0350237 31
0.43375787 -0.1473254 0.81947875 32
0.42763215 -0.14532804 0.67282349 32
0.42478362 -0.14444271 0.56469107 34
0.42626825 -0.14362079 0.52182466 31
0.41598931 -0.14023839 0.43636179 32
0.41016698 -0.13835528 0.36841661 32
0.41268992 -0.13928655 0.314556 31
0.46635509 -0.15748969 0.28719237 18
0.46841803 -0.15827742 0.23527327 17
0.46536955 -0.15724736 0.18473415 9
0.46212962 -0.15624247 0.1367425 8
0.42061934 -0.14253545 0.47670251 33
0.4044008 -0.13711816 0.39447236 32
0.41401145 -0.14045738 0.34252152 33
0.4480387 -0.15200144 0.30617329 31
0.47004777 -0.15955971 0.26190794 17
0.46038017 -0.15636763 0.20798479 17
0.47343969 -0.16089544 0.16195664 7
0.48694193 -0.1655789 0.11442309 7
0.047808565 -0.016293988 4.1941142 35
0.55671161 -0.18973696 3.7394423 27
0.51121849 -0.17433171 2.6202071 30
0.46601522 -0.15900764 1.6213048 30
0.45027488 -0.15372467 1.1804657 31
0.435491 -0.1487623 0.91063875 31
0.42400715 -0.14492209 0.73074406 31
0.42943007 -0.14685932 0.62000811 33
0.23733936 -0.081305705 4.1774468 37
0.42691991 -0.14633386 4.1659317 39
0.48596093 -0.16666593 2.0155215 31
0.45627019 -0.15657218 1.3660097 31
0.44425347 -0.15253523 1.0350237 31
0.43324095 -0.14883858 0.81947875 32
0.42712227 -0.14681987 0.67282349 32
0.42427686 -0.1459246 0.56469107 34
0.42576432 -0.14510787 0.52182466 31
0.41549727 -0.14168961 0.43636179 32
0.41363889 -0.14113648 0.37115806 32
0.41220126 -0.14072627 0.314556 31
0.46580249 -0.15911661 0.28719237 17
0.4678627 -0.15991154 0.23527327 17
0.46481782 -0.15887085 0.18473415 10
0.46158141 -0.15785465 0.1367425 8
0.42011923 -0.14400281 0.47670251 32
0.4039197 -0.13852894 0.39447236 32
0.41351864 -0.1419017 0.34252152 31
0.44750541 -0.15356447 0.30617329 31
0.46948794 -0.16119952 0.26190794 17
0.46442842 -0.15955293 0.20915711 18
0.46819204 -0.16093729 0.16126597 7
0.49108532 -0.16890252 0.11462462 7
0.047751397 -0.016460771 4.1941142 35
0.55678052 -0.19193234 3.7443817 27
0.51156938 -0.17644715 2.6251025 30
0.4668684 -0.16112036 1.6260768 30
0.44973552 -0.15529549 1.1804657 31
0.43496907 -0.15028153 0.91063875 31
0.42615828 -0.14732067 0.73487705 31
0.42891482 -0.14835741 0.62000811 33
0.23705411 -0.082133681 4.1774468 37
0.4264065 -0.1478232 4.1659317 38
0.48537618 -0.16836123 2.0155215 31
0.45572087 -0.15816389 1.3660097 31
0.44371831 -0.15408501 1.0350237 31
0.43271878 -0.15034996 0.81947875 32
0.42660716 -0.14830992 0.67282349 32
0.42696685 -0.14851849 0.56836623 34
0.42525521 -0.14659317 0.52182466 33
0.41867974 -0.14440826 0.43950024 32
0.41314369 -0.1425795 0.37115806 32
0.41170749 -0.14216426 0.314556 31
0.4652442 -0.16074158 0.28719237 17
0.47183543 -0.16311103 0.23668331 16
0.46426043 -0.16049239 0.18473415 11
0.46102759 -0.15946491 0.1367425 7
0.41961402 -0.14546843 0.47670251 33
0.40725249 -0.14126267 0.39741552 32
0.41302079 -0.14334427 0.34252152 31
0.44696662 -0.15512562 0.30617329 31
0.46892241 -0.16283736 0.26190794 17
0.46386865 -0.16117312 0.20915711 18
0.46762741 -0.1625706 0.16126597 7
0.49049276 -0.17061569 0.11462462 7
0.047734849 -0.016641719 4.1991138 35
0.55684084 -0.19413047 3.7493207 27
0.51191175 -0.17856713 2.6299977 29
0.46630317 -0.16274904 1.6260768 30
0.45103511 -0.15750852 1.1850682 31
0.43670276 -0.15258895 0.9150278 31
0.42564142 -0.14880735 0.73487705 31
0.42839435 -0.14985369 0.62000811 33
0.23676597 -0.082960658 4.1774468 37
0.42588791 -0.14931074 4.1659317 39
0.48597163 -0.17047055 2.0203609 30
0.45516601 -0.1597537 1.3660097 31
0.44317773 -0.15563294 1.0350237 32
0.43465188 -0.1527241 0.82374471 32
0.42892957 -0.15079756 0.67681348 32
0.42644584 -0.15000798 0.56836623 33
0.42474091 -0.1480767 0.52182466 32
0.4181731 -0.14586884 0.43950024 32
0.41264352 -0.14402077 0.37115806 32
0.41120872 -0.14360052 0.314556 31
0.46468028 -0.16236463 0.28719237 17
0.47126323 -0.16475704 0.23668331 16
0.46369737 -0.16211198 0.18473415 11
0.46046814 -0.16107322 0.1367425 7
0.41910368 -0.14693227 0.47670251 33
0.40675691 -0.14268337 0.39741552 32
0.41251791 -0.14478511 0.34252152 30
0.4464224 -0.15668488 0.30617329 31
0.46835113 -0.16447321 0.26190794 18
0.46330324 -0.16279136 0.20915711 18
0.46705708 -0.16420195 0.16126597 7
0.48989421 -0.1723268 0.11462462 7
0.04767647 -0.016808243 4.1991138 35
0.55689257 -0.19633135 3.7542601 27
0.51128531 -0.18035294 2.6299977 29
0.46713981 -0.16487256 1.6308489 30
0.45048258 -0.15908195 1.1850682 31
0.43616745 -0.1541124 0.9150278 31
0.4251194 -0.15029222 0.73487705 31
0.42786866 -0.15134816 0.62000811 33
0.23647493 -0.083786622 4.1774468 37
0.42536411 -0.15079646 4.1659317 38
0.48537362 -0.17216586 2.0203609 30
0.45623189 -0.16191871 1.3707025 31
0.44468325 -0.15790746 1.0395249 32
0.43411613 -0.15424038 0.82374471 32
0.42840058 -0.15229388 0.67681348 32
0.42591959 -0.15149564 0.56836623 34
0.42758477 -0.15074416 0.52532923 32
0.41766137 -0.14732765 0.43950024 32
0.41213825 -0.14546029 0.37115806 31
0.41488197 -0.14651008 0.3168748 31
0.45973963 -0.16244122 0.28531936 17
0.47068521 -0.16640107 0.23668331 16
0.46312866 -0.16372961 0.18473415 11
0.45990312 -0.16267958 0.1367425 7
0.41858822 -0.14839433 0.47670251 33
0.40625638 -0.14410235 0.39741552 32
0.41201001 -0.14622417 0.34252152 29
0.44587275 -0.15824221 0.30617329 31
0.46777418 -0.16610706 0.26190794 18
0.46273217 -0.1644076 0.20915711 18
0.46648109 -0.16583127 0.16126597 7
0.4892897 -0.17403579 0.11462462 7
0.047617506 -0.016974563 4.1991138 34
0.55766767 -0.19879588 3.7641387 26
0.5116117 -0.18247862 2.6348929 30
0.46796733 -0.16700387 1.6356208 29
0.4517644 -0.16131042 1.1896707 31
0.43562683 -0.15563396 0.9150278 30
0.4245922 -0.15177524 0.73487705 31
0.42733774 -0.15284078 0.62000811 33
0.23618102 -0.084611557 4.1774468 37
0.42483518 -0.15228033 4.1659317 38
0.48595288 -0.17428343 2.0252004 30
0.45566392 -0.16351028 1.3707025 31
0.44412935 -0.15945871 1.0395249 31
0.43602955 -0.15663652 0.82801062 32
0.42786634 -0.15378834 0.67681348 32
0.42538819 -0.15298145 0.56836623 33
0.42705598 -0.15223578 0.52532923 32
0.41714454 -0.14878465 0.43950024 32
0.41162801 -0.14689802 0.37115806 31
0.414368 -0.14795738 0.3168748 31
0.45916978 -0.16404502 0.28531936 18
0.47461861 -0.16965774 0.23809335 16
0.46255434 -0.16534524 0.18473415 9
0.45933244 -0.16428395 0.1367425 7
0.42158249 -0.15111442 0.480028 33
0.40575087 -0.14551957 0.39741552 32
0.41555458 -0.14911745 0.34505469 28
0.44531769 -0.15979764 0.30617329 31
0.47163591 -0.16933458 0.26355144 19
0.46215546 -0.16602182 0.20915711 18
0.47055954 -0.16913359 0.16195664 8
0.48397803 -0.17405199 0.11442309 7
0.047557965 -0.017140675 4.1991138 34
0.55770129 -0.20100476 3.769078 26
0.51192945 -0.18460879 2.6397882 30
0.46738154 -0.16863637 1.6356208 29
0.45119858 -0.16288641 1.1896707 31
0.43508092 -0.15715364 0.9150278 31
0.42405984 -0.15325643 0.73487705 31
0.42680159 -0.15433154 0.62000811 33
0.23588423 -0.085435472 4.1774468 36
0.42430103 -0.15376236 4.1659317 38
0.48534158 -0.17597868 2.0252004 30
0.45671257 -0.16568837 1.3753952 31
0.44357002 -0.16100805 1.0395249 32
0.43548012 -0.15815759 0.82801062 32
0.42732692 -0.15528093 0.67681348 32
0.42485157 -0.15446539 0.56836623 34
0.42652196 -0.15372556 0.52532923 33
0.41662267 -0.15023986 0.43950024 32
0.41111276 -0.14833398 0.37115806 31
0.41384903 -0.14940292 0.3168748 30
0.45859438 -0.16564684 0.28531936 18
0.47402352 -0.17131345 0.23809335 16
0.46197435 -0.16695884 0.18473415 9
0.46343935 -0.16757976 0.13718958 7
0.42105243 -0.1525851 0.480028 33
0.40524048 -0.14693503 0.39741552 32
0.41503149 -0.15056711 0.34505469 24
0.44475716 -0.16135113 0.30617329 31
0.47104195 -0.17097987 0.26355144 18
0.46157309 -0.16763404 0.20915711 18
0.46996629 -0.17077512 0.16195664 8
0.48336753 -0.17574033 0.11442309 7
0.047497842 -0.017306579 4.1991138 33
0.55772632 -0.20321628 3.7740171 25
0.51223856 -0.18674338 2.6446834 29
0.46819231 -0.17077832 1.6403928 30
0.45246252 -0.16513018 1.1942732 30
0.43452972 -0.15867139 0.9150278 30
0.42352229 -0.15473573 0.73487705 31
0.42626029 -0.15582041 0.62000811 33
0.23558459 -0.086258337 4.1774468 36
0.4237617 -0.1552425 4.1659317 38
0.48590451 -0.17810433 2.0300398 30
0.45613143 -0.16728157 1.3753952 31
0.44504899 -0.16330533 1.0440261 32
0.43492541 -0.15967673 0.82801062 32
0.42678228 -0.15677164 0.67681348 32
0.42749187 -0.15711698 0.57204139 34
0.42598274 -0.15521346 0.52532923 32
0.41243881 -0.15036006 0.43636179 32
0.41059244 -0.14976813 0.37115806 31
0.41332501 -0.1508466 0.3168748 30
0.45801339 -0.16724661 0.28531936 18
0.47342265 -0.17296705 0.23809335 17
0.4660027 -0.17025614 0.18566677 9
0.46285158 -0.16919644 0.13718958 7
0.42051724 -0.15405391 0.480028 33
0.4047251 -0.14834867 0.39741552 32
0.41855064 -0.15349919 0.34758788 16
0.44419125 -0.16290262 0.30617329 31
0.47044224 -0.17262307 0.26355144 18
0.46098518 -0.1692442 0.20915711 18
0.47401568 -0.17412208 0.16264732 8
0.48744038 -0.17914999 0.11462462 8
0.047437139 -0.017472271 4.1991138 33
0.5584718 -0.20569897 3.7838957 25
0.51158363 -0.18853031 2.6446834 29
0.46759334 -0.17241156 1.6403928 30
0.45188335 -0.16670856 1.1942732 30
0.43397322 -0.16018721 0.9150278 30
0.4256193 -0.15718804 0.73900998 31
0.42571378 -0.1573074 0.62000811 33
0.23528203 -0.087080158 4.1774468 36
0.42321724 -0.15672076 4.1659317 38
0.48645845 -0.18023607 2.0348792 29
0.4571628 -0.16947259 1.380088 31
0.44447622 -0.16485785 1.0440261 32
0.43436536 -0.16119394 0.82801062 32
0.42623246 -0.15826043 0.67681348 33
0.42694083 -0.15860826 0.57204139 33
0.42543837 -0.15669948 0.52532923 32
0.41191146 -0.15179884 0.43636179 32
0.41006714 -0.15120044 0.37115806 32
0.41279593 -0.15228845 0.3168748 31
0.45742679 -0.16884434 0.28531936 17
0.47281599 -0.17461854 0.23809335 17
0.46540558 -0.17188177 0.18566677 8
0.46225816 -0.17081107 0.13718958 8
0.41997695 -0.15552086 0.480028 32
0.40420476 -0.14976054 0.39741552 32
0.42609629 -0.15795606 0.35265425 15
0.44361991 -0.16445215 0.30617329 31
0.4698368 -0.17426418 0.26355144 18
0.46494853 -0.17254342 0.21032941 17
0.47340497 -0.17577563 0.16264732 8
0.48681208 -0.18085039 0.11462462 7
0.047375865 -0.017637752 4.1991138 33
0.55920666 -0.20818932 3.7937741 25
0.51187652 -0.1906703 2.6495786 29
0.4683874 -0.17456402 1.6451647 30
0.45129865 -0.16828492 1.1942732 31
0.43565533 -0.16253828 0.9194169 30
0.42506799 -0.15867278 0.73900998 31
0.42516211 -0.15879247 0.62000811 33
0.23497665 -0.087900914 4.1774468 35
0.42266759 -0.15819712 4.1659317 38
0.48582637 -0.18193302 2.0348792 29
0.45656848 -0.17106734 1.380088 31
0.44389805 -0.16640835 1.0440261 32
0.43624198 -0.16362509 0.83227664 32
0.42567745 -0.1597473 0.67681348 33
0.42638457 -0.16009758 0.57204139 33
0.42488882 -0.15818357 0.52532923 32
0.41137907 -0.15323573 0.43636179 32
0.40953687 -0.15263093 0.37115806 32
0.41226181 -0.15372847 0.3168748 31
0.46117806 -0.17206053 0.28719237 17
0.47220355 -0.17626792 0.23809335 17
0.46940479 -0.17522317 0.18659939 8
0.4616591 -0.17242362 0.13718958 7
0.41943151 -0.15698591 0.480028 32
0.40367955 -0.15117055 0.39741552 32
0.42957908 -0.16095495 0.35518742 14
0.44304317 -0.16599968 0.30617329 31
0.46480393 -0.17424554 0.26190794 18
0.4643434 -0.17416534 0.21032941 17
0.47742495 -0.17916699 0.16333801 7
0.48617783 -0.18254857 0.11462462 7
0.047273166 -0.01778765 4.1941142 33
0.55920386 -0.21041369 3.7987134 24
0.51216078 -0.19281468 2.6544738 30
0.4677752 -0.17619793 1.6451647 30
0.45070851 -0.16985922 1.1942732 31
0.4350853 -0.164058 0.9194169 30
0.42714444 -0.16114889 0.7431429 31
0.42760396 -0.1614075 0.62384558 33
0.23466837 -0.088720597 4.1774468 35
0.42161423 -0.15948293 4.1609602 38
0.48636395 -0.18407272 2.0397186 29
0.45758241 -0.17327113 1.3847808 31
0.44535017 -0.16872808 1.0485274 32
0.43566817 -0.16514687 0.83227664 32
0.42793465 -0.16230078 0.68080354 33
0.42582312 -0.16158496 0.57204139 33
0.42433408 -0.15966575 0.52532923 32
0.41084167 -0.15467079 0.43636179 32
0.40900159 -0.15405954 0.37115806 32
0.40757754 -0.15360437 0.314556 31
0.46057466 -0.17366929 0.28719237 17
0.47158542 -0.17791514 0.23809335 17
0.46879029 -0.17686063 0.18659939 7
0.46105444 -0.17403404 0.13718958 7
0.418881 -0.15844904 0.480028 32
0.4031494 -0.15257876 0.39741552 32
0.43304604 -0.16398005 0.35772058 14
0.44246101 -0.16754517 0.30617329 31
0.46419287 -0.17586693 0.26190794 18
0.46827769 -0.17750803 0.21150175 17
0.47679663 -0.18083242 0.16333801 7
0.4902086 -0.18601699 0.11482615 7
0.04721079 -0.017952558 4.1941142 31
0.55991846 -0.21291675 3.8085921 24
0.51243621 -0.19496335 2.659369 29
0.46855232 -0.17836075 1.6499368 30
0.45193854 -0.17212678 1.1988758 31
0.43450999 -0.16557574 0.9194169 30
0.4265793 -0.16263892 0.7431429 31
0.42703789 -0.16289914 0.62384558 33
0.23408759 -0.089436181 4.1724553 35
0.42105493 -0.16095367 4.1609602 38
0.48571849 -0.1857693 2.0397186 29
0.45697477 -0.17486733 1.3847808 30
0.4447585 -0.17028162 1.0485274 32
0.43508905 -0.16666661 0.83227664 32
0.42736548 -0.16379355 0.68080354 32
0.42525649 -0.16307037 0.57204139 33
0.42710754 -0.16241355 0.52883375 32
0.41393718 -0.15748805 0.43950024 32
0.4084613 -0.15548629 0.37115806 32
0.40703887 -0.15502615 0.314556 31
0.46429771 -0.17692675 0.28906542 17
0.47096148 -0.1795602 0.23809335 16
0.47276005 -0.18024594 0.18753201 7
0.46044412 -0.17564237 0.13718958 7
0.4183253 -0.15991025 0.480028 32
0.40638965 -0.15542898 0.40035868 32
0.43649712 -0.1670313 0.36025375 14
0.43763471 -0.16746661 0.30407524 31
0.46357617 -0.17748621 0.26190794 18
0.46765521 -0.17914152 0.21150175 17
0.4807865 -0.18426788 0.16402867 8
0.48489156 -0.18593824 0.11462462 7
0.047147837 -0.018117243 4.1941142 31
0.56062239 -0.21542735 3.8184705 24
0.51270294 -0.19711629 2.6642642 29
0.46792689 -0.17999521 1.6499368 30
0.45133495 -0.1737033 1.1988758 31
0.43616438 -0.16795208 0.92380595 30
0.42863488 -0.16513863 0.74727589 31
0.42646667 -0.16438879 0.62384558 33
0.23377399 -0.09025275 4.1724553 35
0.42049053 -0.16242245 4.1609602 38
0.48623946 -0.18791677 2.044558 29
0.45797113 -0.17708376 1.3894736 30
0.4461917 -0.17261854 1.0530286 31
0.43450463 -0.16818435 0.83227664 32
0.42679113 -0.16528434 0.68080354 32
0.4246847 -0.16455381 0.57204139 33
0.42653802 -0.16390345 0.52883375 32
0.41338491 -0.15893199 0.43950024 32
0.4079161 -0.15691113 0.37115806 32
0.40649524 -0.15644604 0.314556 31
0.46367729 -0.17854635 0.28906542 17
0.47033182 -0.18120307 0.23809335 16
0.472128 -0.18189508 0.18753201 7
0.4598282 -0.17724855 0.13718958 7
0.42124754 -0.16271485 0.4833535 33
0.4058446 -0.15684661 0.40035868 32
0.43591142 -0.16855393 0.36025375 14
0.43704748 -0.16899322 0.30407524 31
0.46295378 -0.17910331 0.26190794 18
0.46702707 -0.18077286 0.21150175 17
0.48014039 -0.185945 0.16402867 7
0.48423958 -0.18762971 0.11462462 7
0.047084309 -0.018281709 4.1941142 32
0.56131566 -0.21794543 3.8283491 24
0.51296085 -0.19927345 2.6691594 29
0.46868703 -0.18216826 1.6547087 30
0.45072582 -0.1752777 1.1988758 31
0.43557546 -0.16947354 0.92380595 30
0.42805585 -0.16663384 0.74727589 31
0.42887691 -0.16703968 0.6276831 32
0.23345752 -0.091068231 4.1724553 35
0.41992101 -0.16388923 4.1609602 37
0.4867515 -0.19007014 2.0493975 29
0.45735019 -0.17868131 1.3894736 31
0.44558644 -0.17417498 1.0530286 31
0.43391487 -0.16970004 0.83227664 32
0.42901775 -0.16787115 0.68479359 33
0.4241077 -0.16603523 0.57204139 33
0.42596325 -0.16539133 0.52883375 32
0.41282764 -0.160374 0.43950024 32
0.41126326 -0.15984891 0.37389955 32
0.40594664 -0.15786402 0.314556 31
0.46737161 -0.18184479 0.29093844 17
0.46969646 -0.18284374 0.23809335 17
0.47606787 -0.18532398 0.18846464 7
0.45920667 -0.17885256 0.13718958 7
0.42067701 -0.16418429 0.4833535 33
0.40529469 -0.15826231 0.40035868 32
0.43532041 -0.17007454 0.36025375 14
0.43645492 -0.17051779 0.30407524 31
0.46672392 -0.1824374 0.26355144 18
0.46639317 -0.18240198 0.21150175 17
0.4794884 -0.18761989 0.16402867 7
0.47892952 -0.18749759 0.11442309 7
0.047020204 -0.018445954 4.1941142 32
0.56127483 -0.22018723 3.8332882 22
0.51321 -0.20143485 2.6740549 29
0.46804833 -0.18380317 1.6547087 30
0.45192963 -0.17756438 1.2034783 31
0.43498123 -0.17099296 0.92380595 30
0.42747155 -0.16812703 0.74727589 31
0.42829123 -0.16853572 0.6276831 32
0.2331382 -0.091882594 4.1724553 34
0.41934636 -0.16535403 4.1609602 37
0.48608503 -0.19176805 2.0493975 29
0.45832884 -0.18091026 1.3941662 30
0.44497573 -0.17572932 1.0530286 32
0.43574542 -0.17217202 0.83654255 32
0.42842916 -0.16936766 0.68479359 33
0.42667809 -0.16876154 0.57571656 33
0.42538336 -0.16687723 0.52883375 33
0.4122653 -0.16181406 0.43950024 33
0.41070282 -0.16128351 0.37389955 32
0.40539315 -0.15928008 0.314556 31
0.46673399 -0.18347511 0.29093844 17
0.46905535 -0.18448217 0.23809335 16
0.47084665 -0.1851867 0.18753201 9
0.45857957 -0.1804544 0.13718958 8
0.42010131 -0.16565172 0.4833535 32
0.40473977 -0.15967607 0.40035868 32
0.43071434 -0.17001033 0.35772058 15
0.43585706 -0.17204024 0.30407524 31
0.46608424 -0.18406548 0.26355144 18
0.46575364 -0.18402889 0.21150175 17
0.47422534 -0.18747191 0.16333801 7
0.47827214 -0.18916823 0.11442309 7
0.04695553 -0.018609971 4.1941142 29
0.56194741 -0.22271764 3.8431668 22
0.51345021 -0.20360036 2.6789498 30
0.46740386 -0.18543585 1.6547087 30
0.45130703 -0.17914084 1.2034783 32
0.43438169 -0.17251028 0.92380595 30
0.42688209 -0.16961814 0.74727589 31
0.42770031 -0.17002971 0.6276831 33
0.23281606 -0.092695832 4.1724553 33
0.41876662 -0.16681682 4.1609602 37
0.48658031 -0.193929 2.0542369 29
0.45769453 -0.18250902 1.3941662 31
0.4443596 -0.1772815 1.0530286 31
0.43514177 -0.173692 0.83654255 32
0.42783532 -0.17086211 0.68479359 33
0.42608637 -0.17024991 0.57571656 33
0.42479825 -0.16836107 0.52883375 32
0.41169795 -0.16325216 0.43950024 32
0.4101373 -0.16271615 0.37389955 32
0.40895194 -0.1623285 0.3168748 31
0.46609074 -0.18510319 0.29093844 17
0.46840852 -0.18611835 0.23809335 16
0.47019738 -0.18682912 0.18753201 9
0.45794687 -0.18205406 0.13718958 7
0.41952053 -0.16711713 0.4833535 32
0.4079347 -0.16258439 0.40330184 32
0.43011823 -0.17151277 0.35772058 15
0.43525383 -0.17356062 0.30407524 31
0.4654389 -0.18569128 0.26355144 18
0.46510842 -0.18565354 0.21150175 17
0.47356799 -0.18912613 0.16333801 7
0.47760886 -0.19083656 0.11442309 8
0.046890289 -0.018773764 4.1941142 29
0.56260926 -0.22525549 3.8530452 22
0.51368159 -0.20577003 2.6838453 30
0.46813932 -0.18762158 1.6594807 30
0.45067897 -0.18071508 1.2034783 32
0.43377686 -0.17402551 0.92380595 30
0.42628741 -0.17110722 0.74727589 31
0.42710423 -0.17152163 0.6276831 33
0.23249108 -0.093507946 4.1724553 33
0.41818178 -0.16827759 4.1609602 37
0.48590043 -0.1956263 2.0542369 28
0.4570547 -0.18410556 1.3941662 31
0.44575721 -0.17964527 1.0575298 31
0.43453285 -0.17520986 0.83654255 32
0.42723629 -0.17235452 0.68479359 33
0.42548954 -0.17173618 0.57571656 34
0.42420799 -0.16984287 0.52883375 32
0.41112557 -0.16468826 0.43950024 32
0.40956682 -0.16414681 0.37389955 32
0.40838283 -0.16375501 0.3168748 31
0.46544173 -0.18672903 0.29093844 17
0.467756 -0.18775226 0.23809335 16
0.46954235 -0.18846928 0.18753201 9
0.46192986 -0.18550733 0.13763666 7
0.41893461 -0.16858053 0.4833535 32
0.4073647 -0.16400737 0.40330184 32
0.42951697 -0.17301312 0.35772058 17
0.43464538 -0.17507888 0.30407524 30
0.46478787 -0.18731484 0.26355144 18
0.46445754 -0.18727595 0.21150175 16
0.47290495 -0.19077803 0.16333801 6
0.47693986 -0.19250257 0.11442309 8
0.046824466 -0.018937327 4.1941142 31
0.5632602 -0.22780062 3.8629236 18
0.51390404 -0.20794377 2.6887403 29
0.46748152 -0.18925454 1.6594807 30
0.45185617 -0.18302059 1.2080808 32
0.43538645 -0.17643812 0.92819506 30
0.42568752 -0.17259419 0.74727589 31
0.42650288 -0.17301145 0.6276831 33
0.23216325 -0.094318919 4.1724553 33
0.41759184 -0.16973628 4.1609602 37
0.48637894 -0.19779472 2.0590763 28
0.45800769 -0.18635021 1.398859 31
0.44512743 -0.18120016 1.0575298 31
0.43633398 -0.17770936 0.84080851 32
0.42663211 -0.17384478 0.68479359 33
0.42488748 -0.17322035 0.57571656 34
0.4269186 -0.17265968 0.53233826 32
0.41054821 -0.16612235 0.43950024 32
0.40899137 -0.16557546 0.37389955 32
0.40780872 -0.16517954 0.3168748 30
0.46478713 -0.18835258 0.29093844 18
0.46709776 -0.18938389 0.23809335 16
0.46888158 -0.19010714 0.18753201 9
0.46589422 -0.18899061 0.13808374 7
0.4183436 -0.17004184 0.4833535 32
0.40678972 -0.16542833 0.40330184 32
0.4289104 -0.17451134 0.35772058 19
0.43403158 -0.176595 0.30407524 31
0.46850488 -0.19071652 0.26519495 18
0.46830258 -0.19072947 0.21267407 16
0.46765018 -0.1905589 0.16264732 6
0.48089123 -0.19605227 0.11462462 8
0.046758078 -0.019100659 4.1941142 31
0.56390017 -0.23035304 3.8728023 18
0.51317501 -0.20973636 2.6887403 29
0.46819973 -0.19145019 1.6642526 30
0.45121458 -0.18459675 1.2080808 32
0.4347679 -0.17795682 0.92819506 30
0.42508247 -0.17407908 0.74727589 31
0.42589638 -0.17449917 0.6276831 33
0.23183261 -0.095128752 4.1724553 33
0.41699681 -0.17119291 4.1609602 37
0.48568553 -0.19949129 2.0590763 29
0.45735443 -0.18794782 1.398859 31
0.44449219 -0.18275285 1.0575298 31
0.435711 -0.17923135 0.84080851 31
0.42602265 -0.17533296 0.68479359 33
0.4242802 -0.17470244 0.57571656 34
0.42631331 -0.17414884 0.53233826 32
0.40996584 -0.16755442 0.43950024 31
0.40841091 -0.16700211 0.37389955 32
0.40722969 -0.16660205 0.3168748 30
0.4641268 -0.18997385 0.29093844 18
0.47087309 -0.19283117 0.23950338 16
0.46366927 -0.18988107 0.18659939 9
0.46523172 -0.19061573 0.13808374 7
0.4177475 -0.17150111 0.4833535 33
0.40620977 -0.16684729 0.40330184 32
0.42829862 -0.17600746 0.35772058 22
0.43341249 -0.17810899 0.30407524 31
0.46783626 -0.19235076 0.26519495 18
0.46763396 -0.19236298 0.21267407 16
0.46698216 -0.19219017 0.16264732 7
0.48482358 -0.1996319 0.11482615 7
0.04669112 -0.019263759 4.1941142 29
0.56452924 -0.23291272 3.8826807 19
0.513381 -0.21191493 2.6936357 28
0.46890825 -0.19365311 1.6690247 30
0.45056745 -0.18617067 1.2080808 32
0.43414408 -0.17947337 0.92819506 30
0.42447224 -0.17556182 0.74727589 31
0.42528465 -0.17598477 0.6276831 33
0.23149914 -0.095937416 4.1724553 33
0.41639668 -0.17264745 4.1609602 37
0.48614725 -0.20166706 2.0639157 28
0.45828938 -0.19020462 1.4035518 31
0.44586205 -0.18513814 1.062031 31
0.4350827 -0.18075117 0.84080851 32
0.42540801 -0.17681898 0.68479359 33
0.42679808 -0.17748412 0.57939172 33
0.42570281 -0.1756359 0.53233826 32
0.41297629 -0.17046957 0.4426387 31
0.40782547 -0.16842671 0.37389955 32
0.41073975 -0.16971418 0.31919357 29
0.46346083 -0.1915928 0.29093844 18
0.47019714 -0.19447365 0.23950338 17
0.46300364 -0.1914984 0.18659939 9
0.46916506 -0.19414268 0.13853082 7
0.42059538 -0.17438832 0.48667899 33
0.40562493 -0.16826421 0.40330184 32
0.42768162 -0.17750143 0.35772058 25
0.42859629 -0.17788105 0.30197719 31
0.46716201 -0.19398263 0.26519495 17
0.47144833 -0.19585894 0.21384639 16
0.46630841 -0.19381905 0.16264732 6
0.4841238 -0.20132305 0.11482615 7
0.046623591 -0.019426625 4.1941142 29
0.56514722 -0.23547959 3.8925595 18
0.51357794 -0.21409744 2.6985307 28
0.46822938 -0.19528872 1.6690247 30
0.45171785 -0.18849465 1.2126833 32
0.43572503 -0.18191043 0.93258411 30
0.42385685 -0.17704244 0.74727589 31
0.42466775 -0.17746823 0.6276831 33
0.23116285 -0.096744917 4.1724553 33
0.41579148 -0.17409991 4.1609602 37
0.48659971 -0.2038485 2.0687551 29
0.45762265 -0.19180319 1.4035518 31
0.44521311 -0.18669334 1.062031 31
0.43444911 -0.1822688 0.84080851 32
0.42756662 -0.17946908 0.68878365 33
0.42617595 -0.17897284 0.57939172 33
0.42508715 -0.17712083 0.53233826 32
0.41237873 -0.17191008 0.4426387 32
0.41109425 -0.17145884 0.37664101 30
0.41014484 -0.17114688 0.31919357 28
0.46278924 -0.19320942 0.29093844 19
0.46951544 -0.19611377 0.23950338 16
0.4623324 -0.19311345 0.18659939 9
0.46848449 -0.19577919 0.13853082 7
0.4199841 -0.17585543 0.48667899 33
0.40876317 -0.17124087 0.40624499 32
0.42705941 -0.17899324 0.35772058 27
0.42797273 -0.17937604 0.30197719 31
0.46648201 -0.19561213 0.26519495 17
0.47076178 -0.19750342 0.21384639 16
0.46562901 -0.19544558 0.16264732 6
0.48341811 -0.20301171 0.11482615 7
0.046555497 -0.019589253 4.1941142 28
0.56575418 -0.23805358 3.9024379 18
0.51470435 -0.21667898 2.7083211 29
0.46892053 -0.19750136 1.6737967 28
0.45105714 -0.1900703 1.2126833 32
0.43508741 -0.18343028 0.93258411 31
0.42582908 -0.17961454 0.75140882 31
0.42404568 -0.17894949 0.6276831 33
0.23082373 -0.097551227 4.1724553 32
0.41518125 -0.17555022 4.1609602 36
0.48704278 -0.20603551 2.0735946 29
0.45853958 -0.19407205 1.4082446 30
0.44455871 -0.18824629 1.062031 31
0.43381023 -0.1837842 0.84080851 32
0.42693758 -0.18096049 0.68878365 33
0.42554861 -0.18045938 0.57939172 33
0.42446628 -0.17860356 0.53233826 32
0.41536355 -0.17485872 0.44577715 32
0.41049325 -0.17289278 0.37664101 30
0.41362709 -0.17429769 0.32151237 27
0.46638379 -0.19662464 0.29281148 20
0.46882802 -0.19775148 0.23950338 16
0.46165547 -0.19472609 0.18659939 9
0.46779823 -0.1974133 0.13853082 7
0.41936767 -0.17732038 0.48667899 33
0.40816289 -0.17266665 0.40624499 32
0.42246217 -0.17880267 0.35518742 29
0.42734402 -0.18086886 0.30197719 31
0.46579638 -0.19723928 0.26519495 18
0.47006953 -0.19914547 0.21384639 16
0.46494395 -0.19706976 0.16264732 7
0.48270649 -0.20469791 0.11482615 7
0.046486836 -0.019751644 4.1941142 28
0.56635004 -0.24063468 3.9123166 17
0.51488191 -0.21887264 2.7132165 28
0.46822828 -0.199137 1.6737967 29
0.45218861 -0.19240856 1.217286 32
0.43444446 -0.18494789 0.93258411 31
0.42519948 -0.18109986 0.75140882 31
0.42636716 -0.1816851 0.63152057 32
0.2304818 -0.098356359 4.1724553 32
0.41456589 -0.17699842 4.1609602 36
0.48632061 -0.20773435 2.0735946 28
0.45785934 -0.19567145 1.4082446 30
0.44590056 -0.19065279 1.0665321 31
0.43316609 -0.18529734 0.84080851 32
0.4263033 -0.18244967 0.68878365 33
0.42491612 -0.18194373 0.57939172 33
0.42384025 -0.18008415 0.53233826 32
0.41475067 -0.17630754 0.44577715 33
0.40988725 -0.17432463 0.37664101 31
0.41709229 -0.1774749 0.32383117 24
0.46569461 -0.19825143 0.29281148 20
0.46813482 -0.19938679 0.23950338 17
0.46097291 -0.19633639 0.18659939 9
0.46252495 -0.19709279 0.13808374 7
0.42218003 -0.18024926 0.49000448 33
0.4075577 -0.17409037 0.40624499 32
0.42183548 -0.18027624 0.35518742 29
0.42671007 -0.18235946 0.30197719 31
0.46510503 -0.19886401 0.26519495 18
0.4693715 -0.2007851 0.21384639 17
0.46425325 -0.19869152 0.16264732 7
0.48198903 -0.20638163 0.11482615 7
0.046457704 -0.019930994 4.1991138 27
0.56693465 -0.24322279 3.922195 17
0.51505041 -0.2210702 2.7181115 28
0.4689019 -0.20135921 1.6785686 29
0.45151424 -0.19398583 1.217286 31
0.43599659 -0.18740904 0.93697315 30
0.42456475 -0.18258299 0.75140882 31
0.42573038 -0.1831723 0.63152057 32
0.22987193 -0.099046059 4.1674638 31
0.41394556 -0.17844443 4.1609602 36
0.48674679 -0.20992847 2.078434 29
0.458758 -0.19795218 1.4129373 31
0.44523233 -0.1922081 1.0665321 31
0.4325166 -0.18680827 0.84080851 32
0.42566383 -0.18393664 0.68878365 33
0.42739022 -0.18477115 0.58306688 33
0.42320907 -0.18156251 0.53233826 32
0.41413268 -0.17775422 0.44577715 32
0.40927625 -0.17575434 0.37664101 32
0.41647026 -0.17892975 0.32383117 23
0.46925887 -0.20170653 0.2946845 20
0.46743602 -0.20101967 0.23950338 17
0.46028477 -0.1979443 0.18659939 9
0.46183416 -0.19870611 0.13808374 7
0.42154828 -0.18172184 0.49000448 33
0.40694755 -0.17551194 0.40624499 32
0.42120361 -0.18174763 0.35518742 30
0.42607093 -0.18384784 0.30197719 31
0.46440804 -0.2004863 0.26519495 18
0.46866775 -0.20242231 0.21384639 17
0.46355683 -0.20031084 0.16264732 7
0.48126569 -0.20806283 0.11482615 7
0.046387848 -0.020093041 4.1991138 27
0.56750822 -0.24581796 3.9320736 17
0.51520991 -0.22327159 2.723007 29
0.46819615 -0.20299475 1.6785686 29
0.45083433 -0.19556072 1.217286 31
0.43533975 -0.18892981 0.93697315 31
0.42392483 -0.18406388 0.75140882 31
0.42508835 -0.18465726 0.63152057 32
0.22952479 -0.099847861 4.1674638 31
0.41332012 -0.17988829 4.1609602 36
0.48716348 -0.21212807 2.0832736 28
0.4580642 -0.19955234 1.4129373 31
0.44455868 -0.19376108 1.0665321 32
0.43425253 -0.18935934 0.84507442 32
0.42501917 -0.18542136 0.68878365 33
0.42674264 -0.18626189 0.58306688 34
0.42584518 -0.18445617 0.53584284 32
0.4135097 -0.17919874 0.44577715 32
0.40866023 -0.1771819 0.37664101 32
0.41990706 -0.18214524 0.32615 20
0.47280464 -0.20518892 0.29655755 20
0.46673149 -0.2026501 0.23950338 17
0.459591 -0.19954979 0.18659939 9
0.46113771 -0.200317 0.13808374 7
0.42091137 -0.18319221 0.49000448 32
0.4063324 -0.17693138 0.40624499 32
0.41661456 -0.18149512 0.35265425 30
0.42542654 -0.185334 0.30197719 31
0.46370536 -0.20210618 0.26519495 18
0.46795833 -0.20405702 0.21384639 17
0.46285477 -0.20192774 0.16264732 7
0.47595769 -0.20774297 0.11462462 8
0.046317428 -0.020254843 4.1991138 27
0.56878245 -0.2487314 3.9468911 16
0.51536024 -0.22547679 2.7279024 28
0.46885219 -0.20522639 1.6833405 29
0.45014897 -0.19713324 1.217286 31
0.43687123 -0.19140941 0.94136226 30
0.42585701 -0.18667229 0.75554174 32
0.42444119 -0.18613997 0.63152057 32
0.22917488 -0.10064844 4.1674638 30
0.41268969 -0.18132995 4.1609602 36
0.48642004 -0.21382733 2.0832736 29
0.45894453 -0.20184481 1.4176301 31
0.44587219 -0.19618846 1.0710334 32
0.43358889 -0.190874 0.84507442 32
0.42712694 -0.18811834 0.69277364 33
0.42608985 -0.18775037 0.58306688 34
0.4251987 -0.18594153 0.53584284 33
0.41644761 -0.18220122 0.4489156 32
0.41186982 -0.18028404 0.37938246 32
0.41926873 -0.18360989 0.32615 17
0.47208548 -0.20683807 0.29655755 22
0.46602124 -0.20427807 0.23950338 17
0.46339068 -0.20312497 0.18753201 10
0.46499634 -0.20392555 0.13853082 8
0.42026934 -0.18466035 0.49000448 32
0.40571231 -0.17834869 0.40624499 32
0.41597852 -0.18294828 0.35265425 31
0.42477706 -0.18681788 0.30197719 31
0.46731931 -0.20562543 0.26683846 18
0.46724316 -0.20568925 0.21384639 17
0.46214709 -0.20354217 0.16264732 7
0.47522962 -0.2094031 0.11462462 8
0.046286359 -0.02043402 4.204114 27
0.56933236 -0.25134289 3.9567697 16
0.51550144 -0.22768572 2.7327974 28
0.46949831 -0.20746507 1.6881126 29
0.45124495 -0.19949329 1.2218884 31
0.43620044 -0.1929332 0.94136226 30
0.42520282 -0.18815766 0.75554174 32
0.42671973 -0.18891796 0.6353581 33
0.22882216 -0.1014478 4.1674638 30
0.41205424 -0.18276939 4.1609602 36
0.4868196 -0.21603377 2.0881128 29
0.45981434 -0.20414583 1.4223229 31
0.44518465 -0.19774364 1.0710334 32
0.43291998 -0.19238634 0.84507442 32
0.42646769 -0.18960816 0.69277364 33
0.42543188 -0.18923655 0.58306688 34
0.42454708 -0.18742462 0.53584284 32
