# .PCD v0.7 - Point Cloud Data file format
VERSION 0.7
FIELDS x y z intensity
SIZE 4 4 4 4
TYPE F F F F
COUNT 1 1 1 1
WIDTH 1374
HEIGHT 1
VIEWPOINT 0 0 0 1 0 0 0
POINTS 1374
DATA ascii
-0.35724318 0.55306005 1.8446718 34
-0.39058992 0.60491681 1.5526633 36
-0.41106921 0.63687748 1.3100612 34
-0.42946273 0.66562992 1.1236962 34
-0.44530168 0.6904434 0.96895909 35
-0.45645306 0.70341331 0.90382016 32
-0.46130985 0.71116972 0.76589966 32
-0.46982309 0.72457087 0.65078759 31
-0.46097931 0.71120369 0.53020442 30
-0.20967598 0.32361406 0.24411261 69
-0.21662748 0.3344709 0.20707262 84
nan nan nan 0
-4.3951654 6.788693 0.8189851 12
-0.45596257 0.7053504 0.82920557 32
-0.45332307 0.70153588 0.69173157 31
-0.47111231 0.72934461 0.59583938 31
-0.40938768 0.63378668 0.43625253 33
-0.1591187 0.24643129 0.19123703 97
-0.26894134 0.41667604 0.21032941 71
-2.0215516 3.1332293 0.61228007 15
-4.4325385 6.8726826 0.42357153 13
-0.027299043 0.042392302 4.184114 36
-0.26164484 0.40630463 3.0726426 8
-0.28463712 0.44217858 2.5516741 33
-0.3375265 0.52454239 2.0412395 35
-0.37153459 0.57761514 1.6775383 34
-0.39784506 0.61875659 1.4153829 32
-0.41724491 0.64917773 1.2060332 33
-0.43589976 0.67846251 1.0421336 34
-0.13347152 0.20798305 4.1125555 35
-0.22813705 0.3556329 3.8974702 3
-0.31328136 0.48854825 2.272011 34
-0.35531044 0.55430365 1.8446718 34
-0.38847598 0.60627663 1.5526633 36
-0.40884358 0.63830858 1.3100612 34
-0.4271366 0.66712493 1.1236962 34
-0.44106135 0.68913817 0.96528393 35
-0.4539949 0.70500237 0.90382016 33
-0.45882463 0.71277565 0.76589966 32
-0.46729097 0.72620642 0.65078759 31
-0.45849392 0.71280849 0.53020442 30
-0.2235885 0.34774053 0.25535083 67
-0.22323968 0.34733132 0.21130273 84
nan nan nan 0
-4.3902845 6.833322 0.82211465 13
-0.45148161 0.70379502 0.82588005 33
-0.45087153 0.70311397 0.69173157 32
-0.46856353 0.73098463 0.59583938 31
-0.41207129 0.64285368 0.44044864 32
-0.16335282 0.2549372 0.19452405 96
-0.27535009 0.42989135 0.21384639 70
-2.0479853 3.1986535 0.62194955 21
-4.4192934 6.9049444 0.42437762 13
-0.027150899 0.042487334 4.184114 35
-0.2598066 0.40656078 3.0677032 8
-0.2830919 0.44316944 2.5516741 33
-0.3348901 0.5244593 2.0364673 35
-0.36951607 0.5789085 1.6775383 34
-0.39568275 0.62014157 1.4153829 32
-0.4149763 0.65063018 1.2060332 33
-0.43352887 0.67997992 1.0421336 34
-0.1327447 0.20844769 4.1125555 35
-0.22775301 0.35777611 3.912385 2
-0.31089929 0.48857835 2.2671714 34
-0.35244721 0.55408448 1.8399791 34
-0.38518924 0.60579193 1.5481621 36
-0.40521395 0.63753074 1.3057953 34
-0.42318943 0.66606855 1.1197063 34
-0.43865314 0.69067359 0.96528393 35
-0.44961086 0.7035777 0.90031564 33
-0.45423841 0.71109277 0.76276124 32
-0.46250284 0.72430897 0.64804614 31
-0.45361954 0.71067059 0.52788562 30
-0.23733492 0.37196782 0.26658902 53
-0.22976461 0.36024177 0.21553281 81
-0.80301851 1.2590312 0.37498868 27
-4.3958549 6.8947954 0.82703251 14
-0.44902214 0.70536667 0.82588005 33
-0.44624448 0.70127338 0.68878841 32
-0.46369544 0.72897846 0.59330624 31
-0.41226065 0.64811754 0.4425467 33
-0.17006314 0.26746041 0.19945458 95
-0.28427705 0.44725844 0.21853565 65
-2.0660195 3.2517605 0.62954706 22
-4.4085565 6.9414153 0.4253853 15
-0.026979059 0.042545006 4.1791148 35
-0.25838584 0.40746519 3.0677032 8
-0.28154325 0.44415492 2.5516741 33
-0.33225849 0.52436429 2.0316956 35
-0.36644769 0.57854438 1.6729357 34
-0.39223447 0.61949551 1.4109938 33
-0.41119769 0.64969695 1.2019002 34
-0.42943895 0.67878038 1.0382961 34
-0.13186206 0.20866573 4.107564 35
-0.22194783 0.35135821 3.8328409 2
-0.30852085 0.48859781 2.2623322 34
-0.35051098 0.55531132 1.8399791 34
-0.38191065 0.60529166 1.5436609 36
-0.40298614 0.63894129 1.3057953 34
-0.41925481 0.66499275 1.1157162 34
-0.43443206 0.68933249 0.96160877 35
-0.44524235 0.70213115 0.89681107 34
-0.4517535 0.71267396 0.76276124 33
-0.45997173 0.72591901 0.64804614 31
-0.45113608 0.7122497 0.52788562 30
-0.25091475 0.39629501 0.2778272 54
-0.23620209 0.37320191 0.21976292 69
-0.80387294 1.2701281 0.37685391 28
-4.6007385 7.2720251 0.86548138 10
-0.44456318 0.70377308 0.82255453 33
-0.44379386 0.7028268 0.68878841 32
-0.45884708 0.72694719 0.59077305 31
-0.41484085 0.65722853 0.4467428 33
-0.17668794 0.28003341 0.2043851 94
-0.29308611 0.46469295 0.22322494 61
-2.0757844 3.2924645 0.63507247 23
-4.4215913 7.015934 0.42820671 15
-0.026830386 0.04263892 4.1791148 35
-0.25654817 0.40770704 3.0627639 7
-0.27944899 0.44427311 2.5467787 34
-0.32963151 0.52425712 2.0269234 34
-0.36338633 0.57816589 1.6683333 34
-0.39006966 0.62086087 1.4109938 33
-0.40892732 0.65112829 1.2019002 34
-0.42536277 0.67756069 1.0344586 34
-0.13113287 0.20912473 4.107564 34
-0.22524972 0.35935736 3.912385 2
-0.306146 0.48860657 2.2574925 34
-0.3476544 0.55506891 1.8352863 34
-0.37864026 0.60477591 1.5391597 36
-0.40075335 0.64034408 1.3057953 35
-0.416931 0.66645217 1.1157162 34
-0.43202317 0.69084471 0.96160877 35
-0.44278878 0.70368105 0.89681107 34
-0.44719064 0.71095181 0.75962275 33
-0.45520926 0.72398031 0.64530468 31
-0.44864711 0.7138201 0.52788562 31
-0.26679376 0.42464674 0.29093844 50
-0.24510305 0.3902736 0.22540304 65
-0.80204695 1.2770864 0.37778652 29
-4.6627045 7.4272256 0.88023496 14
-0.44210383 0.70532066 0.82255453 34
-0.44133779 0.70437169 0.68878841 33
-0.45401853 0.72489107 0.58823985 32
-0.4149532 0.66251892 0.44884086 33
-0.18322697 0.29265577 0.20931563 94
-0.30177665 0.4821941 0.22791418 49
-2.0695317 3.3080869 0.63645387 24
-4.659317 7.450676 0.44815829 10
-0.026681382 0.042732317 4.1791148 35
-0.2547119 0.40794098 3.0578249 7
-0.27789649 0.44524583 2.5467787 34
-0.3277995 0.52540457 2.0269234 34
-0.36136594 0.57943082 1.6683333 34
-0.38663301 0.62018633 1.4066046 33
-0.40516371 0.65016359 1.1977673 34
-0.42130032 0.67632073 1.0306212 35
-0.13040209 0.20958121 4.107564 34
-0.22512011 0.36195204 3.932271 2
-0.30443859 0.48967227 2.2574925 34
-0.34571469 0.55627912 1.8352863 34
-0.37537807 0.60424477 1.5346584 36
-0.39713985 0.63952351 1.3015293 35
-0.41301286 0.66534328 1.1117262 34
-0.42782155 0.68946791 0.9579336 35
-0.43844095 0.70219737 0.89330655 34
-0.44470623 0.71250844 0.75962275 33
-0.44825265 0.71846968 0.63982177 32
-0.44615269 0.7153818 0.52788562 30
-0.2849302 0.45704791 0.30592272 40
-0.25642467 0.41148299 0.2324532 60
-0.80537826 1.2923852 0.38058439 29
-4.6815124 7.5153141 0.88783532 16
-0.43766719 0.70368904 0.81922907 34
-0.43674228 0.70247525 0.68584526 33
-0.44920996 0.72281021 0.58570671 32
-0.41263801 0.66396338 0.44884086 33
-0.1921718 0.30933824 0.21588968 88
-0.30778429 0.4956322 0.23143113 49
-2.0710301 3.3363271 0.63990724 24
-4.6964998 7.5687771 0.452995 16
-0.026555037 0.042862281 4.184114 36
-0.25287715 0.40816706 3.0528855 8
-0.2763406 0.44621319 2.5467787 34
-0.32517779 0.52527642 2.0221515 35
-0.35831311 0.57902741 1.6637307 34
-0.38446581 0.62153214 1.4066046 33
-0.40289173 0.6515739 1.1977673 34
-0.41893694 0.67778724 1.0306212 35
-0.12966973 0.21003512 4.107564 34
-0.22749461 0.36863282 3.9969006 2
-0.30206755 0.4896622 2.2526534 34
-0.34286505 0.55601358 1.8305935 35
-0.37326661 0.60555136 1.5346584 36
-0.39490506 0.64090586 1.3015293 35
-0.41068789 0.66678101 1.1117262 35
-0.4254123 0.69095707 0.9579336 35
-0.4359872 0.70372355 0.89330655 34
-0.44016707 0.71074736 0.75648433 33
-0.44354102 0.71647465 0.63708025 32
-0.44365284 0.7169348 0.52788562 30
-0.30284345 0.48958042 0.32090697 40
-0.26507819 0.42869586 0.23809335 55
-0.80602896 1.3035448 0.38244963 30
-4.6788158 7.5697351 0.89185905 17
-0.43324727 0.70203495 0.81590348 34
-0.43428755 0.70399553 0.68584526 33
-0.4444215 0.72070456 0.58317351 33
-0.4127 0.66926277 0.45093891 33
-0.19604656 0.31804684 0.21917668 85
-0.31370169 0.50911796 0.2349481 49
-2.0775511 3.3730516 0.64474201 26
-4.7067223 7.6446848 0.45581648 17
-0.026405258 0.042954713 4.184114 36
-0.25104398 0.40838537 3.0479465 8
-0.27424827 0.44630757 2.5418837 34
-0.322561 0.52513635 2.0173795 35
-0.35628974 0.58027464 1.6637307 34
-0.38104114 0.62082916 1.4022156 33
-0.39914325 0.65057766 1.1936343 34
-0.41489273 0.67651308 1.0267835 35
-0.12893578 0.21048646 4.107564 34
-0.22899008 0.37397069 4.0466156 2
-0.29970023 0.48964149 2.2478137 34
-0.34002152 0.55573505 1.8259007 35
-0.37001476 0.60499346 1.5301572 36
-0.39130512 0.6400553 1.2972634 35
-0.40678659 0.66563934 1.1077361 35
-0.42123049 0.6895448 0.95425844 35
-0.43166047 0.70220304 0.88980198 34
-0.43564564 0.70896327 0.75334585 33
-0.43666032 0.71089262 0.63159734 33
-0.43882969 0.7147041 0.52556682 32
-0.32538286 0.53014529 0.33963731 37
-0.27863172 0.45415166 0.24655354 44
-0.80661148 1.3147243 0.38431486 30
-4.6757951 7.6242275 0.89588273 17
-0.43079406 0.70354301 0.81590348 34
-0.4297173 0.70205963 0.6829021 34
-0.43965331 0.7185744 0.58064038 33
-0.41036135 0.67069936 0.45093891 34
-0.2023266 0.3308146 0.22410721 83
-0.31952864 0.52265102 0.23846504 47
-2.0812578 3.4056356 0.64888608 28
-4.6956353 7.6866479 0.45702565 18
-0.026255155 0.043046623 4.184114 36
-0.24921229 0.40859583 3.0430069 7
-0.27268872 0.44726217 2.5418837 34
-0.32072595 0.52625912 2.0173795 35
-0.35324559 0.57984632 1.6591282 34
-0.37887174 0.62215543 1.4022156 32
-0.39686993 0.65196693 1.1936343 34
-0.41252872 0.67795718 1.0267835 35
-0.12820026 0.21093526 4.107564 34
-0.22989745 0.37841234 4.0863876 2
-0.29798922 0.49068466 2.2478137 34
-0.33807957 0.55691856 1.8259007 34
-0.36790064 0.6062814 1.5301572 36
-0.38906848 0.64141726 1.2972634 35
-0.40446064 0.66705531 1.1077361 35
-0.41882095 0.69101095 0.95425844 36
-0.42734966 0.70066094 0.88629746 34
-0.43114206 0.70715624 0.75020742 33
-0.42982402 0.7052713 0.62611443 33
-0.43402752 0.71244848 0.52324796 32
-0.32353035 0.53127784 0.33963731 37
-0.28951636 0.47560948 0.2536037 43
-0.80967999 1.3301198 0.38711271 30
-4.6802173 7.6915536 0.90124768 18
-0.42639694 0.70185143 0.81257796 34
-0.42516595 0.70010048 0.67995894 34
-0.43266839 0.71273476 0.57557398 34
-0.40566254 0.668248 0.44884086 34
-0.19627112 0.32344475 0.22082019 83
-0.32274398 0.53207487 0.24080968 44
nan nan nan 0
-4.7102075 7.7713518 0.46025014 18
-0.026127327 0.04317534 4.1891141 36
-0.24738224 0.40879849 3.0380678 7
-0.27112579 0.44821131 2.5418837 34
-0.31811464 0.52609813 2.0126076 35
-0.35121942 0.58107585 1.6591282 36
-0.37545919 0.62142438 1.3978266 32
-0.39313692 0.65093952 1.1895014 34
-0.41015974 0.67939305 1.0267835 35
-0.12746318 0.21138148 4.107564 33
-0.23077661 0.38286477 4.1261597 2
-0.29562593 0.49064523 2.2429745 34
-0.33524317 0.55661702 1.8212079 35
-0.36465928 0.60569686 1.525656 37
-0.3854824 0.6405369 1.2929975 35
-0.40057641 0.66588098 1.1037462 35
-0.41465926 0.68956339 0.95058334 36
-0.42490134 0.70214832 0.88629746 34
-0.4266564 0.70532656 0.74706894 34
-0.42519596 0.70318925 0.62337297 33
-0.42924654 0.710168 0.52092916 33
-0.30728963 0.50859654 0.32839912 39
-0.29529434 0.48893595 0.25783381 39
-0.81011111 1.3413479 0.38897794 31
-4.6790781 7.7504764 0.90571845 19
-0.42201689 0.70013773 0.8092525 35
-0.41854751 0.69465613 0.67407256 34
-0.42795372 0.71054798 0.57304084 34
-0.40332744 0.66965997 0.44884086 34
-0.19270527 0.32008234 0.21917668 89
-0.32339102 0.53736275 0.24198201 40
nan nan nan 0
-4.6984987 7.8134336 0.46145931 18
-0.025976457 0.043266278 4.1891141 36
-0.24555379 0.40899339 3.0331285 6
-0.26903564 0.44828191 2.5369883 34
-0.31550837 0.52592528 2.0078354 35
-0.34818417 0.58062279 1.6545256 34
-0.37328768 0.62273115 1.3978266 33
-0.39086229 0.65230787 1.1895014 33
-0.40613869 0.67807096 1.022946 35
-0.12672454 0.21182512 4.107564 33
-0.23135383 0.38687044 4.1609602 2
-0.29326648 0.49059525 2.2381349 34
-0.33241296 0.55630249 1.8165152 35
-0.36254278 0.60696614 1.525656 37
-0.38324416 0.6418786 1.2929975 35
-0.3982496 0.66727519 1.1037462 35
-0.41051278 0.68809515 0.94690818 36
-0.4206121 0.70056981 0.88279289 35
-0.42218882 0.70347416 0.74393052 34
-0.41843662 0.69749779 0.61789 34
-0.42448676 0.70786297 0.51861036 33
-0.30074534 0.50171357 0.32465306 39
-0.28865457 0.48173392 0.25501373 39
-0.81047368 1.3525949 0.39084318 30
-4.6827025 7.8180299 0.91108346 19
-0.41957042 0.70160657 0.8092525 35
-0.41404623 0.69264352 0.67112941 34
-0.42325962 0.70833701 0.57050765 34
-0.39633143 0.66327184 0.44464475 34
-0.18432234 0.30859095 0.21424615 95
-0.3240051 0.54266173 0.24315432 40
-4.6747417 7.832624 1.3644305 23
-4.6916733 7.8641105 0.46307155 19
-0.025825271 0.043356687 4.1891141 36
-0.24412464 0.40984803 3.0331285 7
-0.2674692 0.44921827 2.5369883 34
-0.31290716 0.52574074 2.0030637 35
-0.34515643 0.58015567 1.6499232 34
-0.3698875 0.62197191 1.3934375 33
-0.38714498 0.65124935 1.1853684 33
-0.40376931 0.67948455 1.022946 35
-0.12598436 0.21226618 4.107564 33
-0.23108998 0.38950947 4.1808467 2
-0.29155222 0.49161595 2.2381349 34
-0.3304691 0.55745947 1.8165152 35
-0.35931206 0.60635513 1.5211548 37
-0.37967211 0.64096862 1.2887316 35
-0.39438272 0.66606843 1.0997561 35
-0.40810835 0.68952399 0.94690818 36
-0.41633907 0.69896984 0.87928838 35
-0.41773936 0.70159924 0.74079204 34
-0.41386074 0.69536102 0.61514854 34
-0.41748345 0.70172644 0.51397276 33
-0.29188335 0.49080664 0.31903392 41
-0.28452 0.47861516 0.2536037 47
-0.80825746 1.3596383 0.39177582 30
-4.6808233 7.8771391 0.91555417 18
-0.41521367 0.6998558 0.80592698 34
-0.4095642 0.69060796 0.66818625 34
-0.41858628 0.70610195 0.56797445 35
-0.38938504 0.65684313 0.44044864 34
-0.17842939 0.30110753 0.21095914 97
-0.32458606 0.54797143 0.24432662 44
-4.6726031 7.8915052 1.3713374 22
-4.6870952 7.9191341 0.46488535 21
-0.025673771 0.043446571 4.1891141 36
-0.24269252 0.41069767 3.0331285 6
-0.26538163 0.44927248 2.5320933 34
-0.31107008 0.52682984 2.0030637 35
-0.3421362 0.57967448 1.6453207 34
-0.36649716 0.62119645 1.3890483 33
-0.38486934 0.65259671 1.1853684 34
-0.39976731 0.6781286 1.0191085 35
-0.12524264 0.21270466 4.107564 33
-0.22891778 0.38893557 4.1659317 3
-0.28919697 0.49154729 2.2332957 34
-0.32764637 0.55712211 1.8118224 35
-0.35719332 0.60760558 1.5211548 37
-0.37743235 0.64229 1.2887316 35
-0.39205533 0.66744101 1.0997561 35
-0.40398243 0.68802088 0.94323301 36
-0.4120824 0.69734854 0.8757838 35
-0.4133082 0.69970179 0.73765361 34
-0.40930492 0.69320083 0.61240709 34
-0.41277981 0.69936448 0.51165396 33
-0.28545696 0.48383689 0.31528786 44
-0.27797386 0.47134134 0.25078365 52
-0.8060019 1.3666825 0.39270842 30
-4.6811185 7.9406204 0.92047209 18
-0.41276824 0.70130086 0.80592698 34
-0.40510133 0.68854964 0.66524309 35
-0.41393366 0.703843 0.56544131 35
-0.38248834 0.65037411 0.43625253 35
-0.17019784 0.289516 0.20602861 97
-0.32267126 0.54910111 0.24432662 43
-4.6625853 7.9376569 1.3761722 22
-4.6720719 7.9569874 0.46589303 24
-0.025521956 0.043535925 4.1891141 36
-0.24086449 0.41087204 3.0281894 6
-0.26381177 0.45019612 2.5320933 34
-0.30847481 0.52662444 1.9982916 35
-0.34011069 0.58086532 1.6453207 35
-0.36311674 0.62040496 1.3846592 33
-0.38116804 0.65150738 1.1812354 34
-0.39739773 0.67951989 1.0191085 35
-0.12435379 0.21289125 4.102572 32
-0.22755873 0.38973227 4.1659317 3
-0.28684583 0.49146825 2.228456 34
-0.32483009 0.55677193 1.8071296 35
-0.35397351 0.60696822 1.5166535 37
-0.3738746 0.64135039 1.2844657 35
-0.38820606 0.66620201 1.0957661 35
-0.39987203 0.68649745 0.93955785 36
-0.40964565 0.69878274 0.8757838 35
-0.40889537 0.69778204 0.73451513 34
-0.40476936 0.69101733 0.60966563 34
-0.40585947 0.69315577 0.50701636 34
-0.28376627 0.48483035 0.31528786 41
-0.2739045 0.46816829 0.24937361 54
-0.80370706 1.3737277 0.39364105 31
-4.6835403 8.0084982 0.92583704 18
-0.40843502 0.69951308 0.80260152 35
-0.40065792 0.68646854 0.66229993 35
-0.40930194 0.70156008 0.56290805 35
-0.37335455 0.63994479 0.42995837 35
-0.16442838 0.28194997 0.20274159 98
-0.32075262 0.55022413 0.24432662 44
-4.6622748 8.0009489 1.3837696 24
-4.6895308 8.0509529 0.46952054 20
-0.025369834 0.043624748 4.1891141 35
-0.23942883 0.41171029 3.0281894 6
-0.26172695 0.45023394 2.5271978 33
-0.30663466 0.52769804 1.9982916 35
-0.33709976 0.58035958 1.6407181 35
-0.36094892 0.6216687 1.3846592 33
-0.3788915 0.65283394 1.1812354 34
-0.39341488 0.67813051 1.0152711 35
-0.12360991 0.21332403 4.102572 32
-0.22592975 0.39006293 4.1609602 3
-0.2851285 0.49246654 2.228456 34
-0.32288462 0.5579024 1.8071296 35
-0.35185266 0.60820019 1.5166535 37
-0.37163359 0.64265156 1.2844657 35
-0.38437021 0.66494429 1.0917761 35
-0.39747328 0.68788904 0.93955785 36
-0.40541115 0.69712555 0.87227929 35
-0.40450102 0.69584 0.73137671 34
-0.40025395 0.68881065 0.60692418 34
-0.40121248 0.69073766 0.50469762 34
-0.27974448 0.48180884 0.31341484 42
-0.26986063 0.46497262 0.24796358 47
-0.79890686 1.3765248 0.39364105 31
-4.6830459 8.0721807 0.93075484 18
-0.40599078 0.70093453 0.80260152 35
-0.39420867 0.6808669 0.65641361 35
-0.40469125 0.69925356 0.56037492 35
-0.36429834 0.62945986 0.42366421 36
-0.16107856 0.27843472 0.20109808 99
-0.31883001 0.5513404 0.24432662 45
-4.6640573 8.0686216 1.3920578 24
-4.6938925 8.1235085 0.47214046 18
-0.025217399 0.043713041 4.1891141 35
-0.23799022 0.41254357 3.0281894 6
-0.25964513 0.45026278 2.5223026 33
-0.30404532 0.5274719 1.9935195 35
-0.33507189 0.58153272 1.6407181 35
-0.35758135 0.62084949 1.3802701 33
-0.37520632 0.65171373 1.1771026 34
-0.38944665 0.67672163 1.0114335 36
-0.12286451 0.21375421 4.102572 32
-0.2245668 0.3908492 4.1609602 4
-0.28278178 0.49236882 2.2236168 34
-0.32007602 0.55752951 1.8024368 35
-0.34864393 0.60753649 1.5121523 37
-0.36809033 0.64168268 1.2801996 35
-0.38204676 0.66628194 1.0917761 35
-0.3933838 0.68633103 0.93588269 36
-0.40119323 0.69544744 0.86877471 34
-0.40206963 0.69724774 0.73137671 35
-0.39575893 0.6865809 0.60418272 34
-0.39658737 0.68829572 0.50237882 34
-0.27806091 0.48278236 0.31341484 43
-0.26584244 0.46175444 0.24655354 47
-0.79654801 1.3835621 0.39457369 31
-4.6821637 8.1359577 0.93567276 18
-0.40168148 0.69911003 0.79927599 35
-0.38981658 0.67873377 0.65347046 35
-0.40010163 0.69692338 0.55784172 35
-0.35531992 0.61891967 0.41737008 36
-0.15540491 0.27080393 0.19781107 99
-0.31932205 0.55666614 0.24549896 43
-4.6629601 8.1321096 1.3996553 22
-4.697804 8.1961908 0.47476035 19
-0.025064658 0.043800797 4.1891141 36
-0.23654872 0.4133718 3.0281894 5
-0.25756627 0.45028248 2.5174074 32
-0.30220222 0.52852994 1.9935195 35
-0.33303988 0.58269888 1.6407181 37
-0.35541204 0.62209392 1.3802701 33
-0.37292916 0.65301949 1.1771026 34
-0.3870821 0.67807692 1.0114335 36
-0.12211762 0.21418178 4.102572 32
-0.223729 0.39255691 4.1709032 3
-0.28043914 0.49226072 2.2187772 34
-0.31727397 0.55714375 1.7977442 35
-0.34652111 0.60874981 1.5121523 37
-0.36455843 0.64069688 1.2759337 35
-0.37822893 0.66499221 1.0877861 35
-0.39098567 0.68770003 0.93588269 36
-0.39699197 0.6937483 0.8652702 34
-0.39770076 0.69526839 0.72823822 34
-0.39128435 0.6843282 0.6014412 35
-0.39198416 0.68582994 0.50006002 34
-0.27407429 0.47972474 0.3115418 42
-0.26185009 0.45851395 0.2451435 57
-0.7917136 1.3863342 0.39457369 31
-4.6808934 8.1998262 0.94059068 19
-0.39923871 0.70050782 0.79927599 35
-0.38544416 0.67657828 0.6505273 35
-0.39553326 0.69456971 0.55530858 35
-0.34641966 0.60832459 0.41107592 37
-0.14978656 0.26313704 0.19452405 100
-0.31978083 0.56200206 0.24667126 43
-4.6639247 8.1999912 1.4079435 22
-4.6987963 8.264657 0.47717875 18
-0.024890073 0.043850075 4.184114 36
-0.23510434 0.41419497 3.0281894 5
-0.25549045 0.45029327 2.5125122 32
-0.29961908 0.52828324 1.9887476 35
-0.33100387 0.58385783 1.6407181 36
-0.35205755 0.62124711 1.3758811 33
-0.36926046 0.65186888 1.1729696 34
-0.3831335 0.67663479 1.007596 35
-0.12136924 0.21460675 4.102572 32
-0.22209503 0.3928715 4.1659317 3
-0.2787191 0.49323663 2.2187772 34
-0.31447852 0.55674541 1.7930514 35
-0.34332374 0.60806006 1.5076511 37
-0.36231974 0.64196551 1.2759337 35
-0.37442479 0.66368401 1.083796 35
-0.3869175 0.6861077 0.93220752 36
-0.39456791 0.69512981 0.8652702 35
-0.39335057 0.69326705 0.7250998 34
-0.38683036 0.68205267 0.59869975 35
-0.38740313 0.68334049 0.49774119 34
-0.27239805 0.48067853 0.3115418 44
-0.25788361 0.45525131 0.24373347 58
-0.78686953 1.3890893 0.39457369 31
-4.6792336 8.2637825 0.94550848 18
-0.39495358 0.69864684 0.79595047 35
-0.38109156 0.67440057 0.64758414 36
-0.39098623 0.69219279 0.55277538 35
-0.33759773 0.59767509 0.40478176 37
-0.14422368 0.25543427 0.19123703 101
-0.31781712 0.56311482 0.24667126 41
-4.6620393 8.2636633 1.4155409 23
-4.6969128 8.3288765 0.47939557 18
-0.024736855 0.043936692 4.184114 35
-0.23365709 0.41501313 3.0281894 5
-0.2534177 0.45029497 2.507617 32
-0.29704133 0.52802485 1.9839755 35
-0.32800624 0.58330673 1.6361156 37
-0.34988683 0.62247223 1.3758811 33
-0.36698273 0.6531539 1.1729696 34
-0.38076925 0.67796808 1.007596 36
-0.12061939 0.21502911 4.102572 32
-0.21785454 0.3885299 4.1112452 3
-0.27638113 0.49311009 2.213938 33
-0.31253323 0.55783963 1.7930514 35
-0.34119913 0.60925478 1.5076511 37
-0.35880274 0.64095062 1.2716678 36
-0.37063441 0.66235745 1.0798061 35
-0.38452017 0.6874541 0.93220752 36
-0.39038941 0.69339532 0.86176562 35
-0.39092824 0.69463587 0.7250998 34
-0.38239706 0.67975444 0.59595829 34
-0.38284421 0.68082732 0.49542239 34
-0.26844692 0.47758517 0.30966878 49
-0.25629291 0.45614868 0.24373347 58
-0.7844221 1.3961102 0.39550629 31
-4.6771836 8.3278294 0.95042634 19
-0.39251244 0.70002121 0.79595047 35
-0.3767589 0.6722008 0.64464104 35
-0.38646066 0.68979257 0.55024219 35
-0.33107278 0.59093088 0.40058565 37
-0.13871647 0.24769603 0.18795002 101
-0.31584954 0.56422079 0.24667126 41
-4.6621833 8.3317461 1.4238291 23
-4.6970773 8.3975439 0.48181394 19
-0.024583338 0.044022772 4.184114 35
-0.23220702 0.41582623 3.0281894 5
-0.25184435 0.45117682 2.507617 31
-0.29446903 0.52775496 1.9792036 35
-0.32596812 0.58444822 1.6361156 37
-0.34654567 0.62159795 1.371492 33
-0.36333075 0.65197277 1.1688366 34
-0.37684056 0.67649299 1.0037585 35
-0.11986806 0.21544883 4.102572 31
-0.2149425 0.38649279 4.0814161 3
-0.27465817 0.49407184 2.213938 33
-0.30974588 0.55741882 1.7883586 35
-0.33801329 0.60853899 1.5031499 37
-0.35656321 0.64219916 1.2716678 35
-0.36832008 0.66364717 1.0798061 35
-0.38047355 0.68582767 0.92853236 36
-0.38796663 0.69475383 0.86176562 35
-0.38660401 0.69259757 0.72196132 35
-0.37798455 0.67743367 0.59321684 34
-0.38046533 0.6821596 0.49542239 34
-0.26677823 0.47851932 0.30966878 48
-0.25236389 0.45285019 0.24232343 62
-0.779544 1.3988397 0.39550629 31
-4.6771674 8.3963108 0.95579135 18
-0.38825178 0.69812399 0.79262501 35
-0.3724463 0.6699791 0.64169788 36
-0.37986276 0.68360114 0.54517585 35
-0.32680357 0.58811581 0.3984876 38
-0.13555805 0.24405064 0.18630651 101
-0.31387812 0.5653199 0.24667126 43
-4.6619081 8.3999281 1.4321172 23
-4.6943955 8.4619436 0.48403078 19
-0.024429521 0.044108316 4.184114 36
-0.23037761 0.41595447 3.0232499 5
-0.24977474 0.4511624 2.5027218 32
-0.29190227 0.52747363 1.9744315 34
-0.32298037 0.58387291 1.6315131 35
-0.34321484 0.62070787 1.3671029 33
-0.36105269 0.6532371 1.1688366 34
-0.37447691 0.67780423 1.0037585 35
-0.11911527 0.21586594 4.102572 31
-0.21153247 0.38350666 4.0416441 4
-0.27293187 0.49502754 2.213938 34
-0.30696529 0.55698526 1.7836659 34
-0.33588701 0.60971516 1.5031499 37
-0.35306132 0.6411553 1.2674019 36
-0.36454824 0.66228902 1.075816 35
-0.37807727 0.68715155 0.92853236 36
-0.38553917 0.69610381 0.86176562 35
-0.38418403 0.69394284 0.72196132 35
-0.37359294 0.67509037 0.59047538 34
-0.37593758 0.67960715 0.49310356 34
-0.26734957 0.48350465 0.3115418 46
-0.24846108 0.44952992 0.24091339 55
-0.77703261 1.4058516 0.39643893 31
-4.6743212 8.4605341 0.96070915 17
-0.38581252 0.69947499 0.79262501 35
-0.36815372 0.66773534 0.63875467 36
-0.37539351 0.68114752 0.54264265 35
-0.32255805 0.58527815 0.39638954 38
-0.13014826 0.23625016 0.18301949 101
-0.30955827 0.56215423 0.24549896 40
-4.6612144 8.4682093 1.4404055 21
-4.6937289 8.5308037 0.48644915 18
-0.024275405 0.044193324 4.184114 36
-0.22892427 0.41675612 3.0232499 5
-0.24770832 0.451139 2.4978266 32
-0.29005927 0.52848935 1.9744315 34
-0.32094032 0.58499676 1.6315131 35
-0.33989444 0.61980218 1.3627138 33
-0.35741764 0.65202582 1.1647037 34
-0.37056839 0.67629635 0.99992096 35
-0.11836103 0.21628042 4.102572 31
-0.20865755 0.38143674 4.0118151 4
-0.27059919 0.49487436 2.2090983 34
-0.3050192 0.55805337 1.7836659 34
-0.33271292 0.6089735 1.4986488 37
-0.35082114 0.64238387 1.2674019 36
-0.36223421 0.66355747 1.075816 35
-0.37567633 0.68846709 0.92853236 36
-0.38310695 0.69744539 0.86176562 35
-0.37988603 0.69186789 0.71882284 35
-0.36922228 0.67272472 0.58773392 35
-0.37356302 0.6809153 0.49310356 34
-0.26566017 0.48443496 0.3115418 44
-0.24689043 0.45039448 0.24091339 55
-0.76503694 1.395633 0.39364105 29
-4.6734757 8.5292072 0.96607417 17
-0.38157663 0.69754171 0.78929949 35
-0.3638815 0.66546994 0.63581151 35
-0.37094608 0.67867112 0.54010952 36
-0.31833637 0.58241808 0.39429149 37
-0.12705871 0.23255901 0.18137598 101
-0.30293468 0.5546996 0.24315432 40
-4.6600995 8.5365868 1.4486935 19
-4.6950321 8.6041479 0.48906907 17
-0.024120994 0.044277791 4.184114 35
-0.22746813 0.41755271 3.0232499 5
-0.24564509 0.4511067 2.4929314 32
-0.28749907 0.52818751 1.9696596 34
-0.31796262 0.58439744 1.6269106 37
-0.33772889 0.62098479 1.3627138 33
-0.35513946 0.65326941 1.1647037 34
-0.36820546 0.67758572 0.99992096 35
-0.11774307 0.21694599 4.107564 31
-0.20579967 0.37935147 3.9819858 4
-0.26887012 0.4958159 2.2090983 33
-0.30224702 0.55759758 1.7789731 35
-0.33058521 0.61013114 1.4986488 37
-0.34733459 0.64131123 1.263136 35
-0.35991573 0.66481787 1.075816 35
-0.37165734 0.68679261 0.9248572 36
-0.37896407 0.69564676 0.85826111 35
-0.37560719 0.68977123 0.71568435 34
-0.36487275 0.67033684 0.58499247 35
-0.3690668 0.67832404 0.49078476 33
-0.26618248 0.48943189 0.31341484 45
-0.2430256 0.44703904 0.23950338 58
-0.76016062 1.3982948 0.39364105 29
-4.6698298 8.5936003 0.97099197 16
-0.37913942 0.69886947 0.78929949 35
-0.36155635 0.66673601 0.63581151 35
-0.3685748 0.6799618 0.54010952 35
-0.31630141 0.58352572 0.39429149 37
-0.12399656 0.22884923 0.17973247 101
-0.29636693 0.54720563 0.24080968 45
-4.6562066 8.6007051 1.4562911 18
-4.6935015 8.6732101 0.49148741 16
-0.023966288 0.044361718 4.184114 35
-0.22637853 0.41902778 3.0281894 5
-0.24358511 0.45106545 2.4880362 32
-0.28494456 0.52787435 1.9648876 34
-0.31499305 0.5837844 1.622308 37
-0.33442226 0.62005204 1.3583248 33
-0.35285693 0.65450513 1.1647037 34
-0.36431742 0.6760453 0.9960835 35
-0.11698507 0.21735567 4.107564 30
-0.20321149 0.37772042 3.9571285 4
-0.2665424 0.49564442 2.2042592 33
-0.30029878 0.55864924 1.7789731 34
-0.32742304 0.60936379 1.4941475 37
-0.34509391 0.64251977 1.263136 35
-0.35759294 0.6660701 1.075816 35
-0.36925775 0.68808573 0.9248572 36
-0.37653348 0.69696534 0.85826111 35
-0.37134767 0.68765336 0.71254593 34
-0.36054438 0.66792685 0.58225095 35
-0.36669677 0.67960823 0.49078476 34
-0.26667309 0.49443832 0.31528786 39
-0.23918721 0.44366208 0.23809335 60
-0.75760609 1.4052637 0.39457369 29
-4.6681547 8.6624565 0.97635692 16
-0.3766976 0.7001887 0.78929949 35
-0.35731235 0.66443413 0.63286835 35
-0.364158 0.67744726 0.53757632 35
-0.31426257 0.58462626 0.39429149 37
-0.11872678 0.22096123 0.17644545 100
-0.28985524 0.53967267 0.23846504 45
-4.6636348 8.6867142 1.4673419 19
-4.6939092 8.746769 0.49410734 16
-0.023811292 0.044445105 4.184114 35
-0.2252814 0.42050034 3.0331285 5
-0.24200912 0.451913 2.4880362 32
-0.28310022 0.52886581 1.9648876 35
-0.31203163 0.58315784 1.6177055 35
-0.33225584 0.62121558 1.3583248 32
-0.34924343 0.65325129 1.1605707 34
-0.36195537 0.67731291 0.9960835 35
-0.11622564 0.21776269 4.107564 30
-0.20063719 0.37607586 3.932271 4
-0.26481068 0.49657181 2.2042592 34
-0.29753515 0.55817121 1.7742803 34
-0.32427031 0.60858178 1.4896463 37
-0.34284896 0.64372039 1.263136 35
-0.35526571 0.66731435 1.075816 35
-0.36685362 0.68937051 0.9248572 35
-0.37241411 0.69513178 0.85475647 35
-0.36894503 0.68894541 0.71254593 34
-0.35623729 0.66549486 0.5795095 34
-0.36432225 0.68088406 0.49078476 34
-0.26494554 0.49536619 0.31528786 38
-0.2353754 0.4402639 0.23668331 58
nan nan nan 0
-4.6660547 8.7314043 0.98172194 16
-0.37249371 0.69820505 0.78597403 34
-0.3549909 0.66567731 0.63286835 35
-0.35976326 0.67491019 0.53504312 35
-0.31435484 0.58972472 0.39638954 37
-0.1157342 0.21720684 0.17480195 100
-0.28339982 0.53210092 0.2361204 49
-4.6425929 8.7204266 1.4701047 19
-4.6915121 8.8160238 0.4965257 16
-0.023656003 0.044527948 4.184114 35
-0.22490583 0.4233427 3.0479465 4
-0.23995264 0.45185578 2.4831409 32
-0.28055254 0.52853227 1.9601157 35
-0.30907845 0.58251768 1.613103 35
-0.32896319 0.62025577 1.3539357 32
-0.34696102 0.65446633 1.1605707 34
-0.35808808 0.67574006 0.99224597 35
-0.11546479 0.21816707 4.107564 29
-0.19832614 0.37488922 3.912385 4
-0.2624881 0.49638194 2.1994195 33
-0.29558498 0.55920637 1.7742803 35
-0.321127 0.60778517 1.4851451 37
-0.34059986 0.64491332 1.263136 35
-0.35293421 0.66855037 1.075816 35
-0.364445 0.69064689 0.9248572 35
-0.36831227 0.69327813 0.85125196 34
-0.36471242 0.68679142 0.70940745 34
-0.35195163 0.66304088 0.57676804 34
-0.3619433 0.68215168 0.49078476 34
-0.26321477 0.496288 0.31528786 40
-0.23159026 0.43684453 0.23527327 53
nan nan nan 0
-4.6611972 8.7960424 0.98663974 15
-0.37005424 0.69950104 0.78597403 34
-0.3526651 0.66691244 0.63286835 35
-0.35740525 0.67616189 0.53504312 35
-0.31441534 0.59483081 0.3984876 36
-0.11276931 0.21343429 0.17315844 99
-0.27700087 0.52449095 0.23377576 49
-4.6375546 8.7847509 1.4777021 23
-4.6910205 8.8897867 0.49914563 15
-0.023500428 0.044610254 4.184114 36
-0.22342673 0.42412519 3.0479465 4
-0.23837391 0.45269063 2.4831409 32
-0.27870592 0.52950835 1.9601157 34
-0.30704319 0.58359301 1.613103 35
-0.32679611 0.62140024 1.3539357 33
-0.34467438 0.6556735 1.1605707 34
-0.35572714 0.67698592 0.99224597 35
-0.11470255 0.21856879 4.107564 29
-0.19602583 0.37369102 3.892499 5
-0.26075378 0.49729517 2.1994195 33
-0.29283008 0.55870634 1.7695875 35
-0.31900346 0.60890239 1.4851451 37
-0.33713675 0.64378786 1.25887 35
-0.34920096 0.6671086 1.071826 35
-0.36046031 0.68891102 0.92118204 35
-0.36589003 0.69455957 0.85125196 34
-0.36231282 0.68806028 0.70940745 34
-0.34963506 0.66426533 0.57676804 34
-0.35955995 0.68341094 0.49078476 33
-0.259323 0.49310067 0.31341484 40
-0.22559977 0.429158 0.2324532 53
nan nan nan 0
-4.6628957 8.8739777 0.99289888 14
-0.36761028 0.7007885 0.78597403 34
-0.34845796 0.66455972 0.62992519 35
-0.35304162 0.6735872 0.53250998 35
-0.31655085 0.60396445 0.40268368 36
-0.10764077 0.20546083 0.16987142 99
-0.27291346 0.52114868 0.23260346 44
-4.6298275 8.844758 1.4846089 30
-4.6854386 8.9548006 0.50136244 15
-0.023344565 0.044692013 4.184114 36
-0.22410335 0.42903474 3.0775819 3
-0.23632099 0.45261732 2.4782455 32
-0.27616522 0.52915466 1.9553436 34
-0.30410063 0.58292919 1.6085005 35
-0.32351765 0.6204136 1.3495466 32
-0.3410829 0.65437722 1.1564378 34
-0.35336185 0.67822355 0.99224597 35
-0.11380564 0.21871173 4.102572 28
-0.19373633 0.37248135 3.872613 5
-0.25843647 0.49708706 2.1945801 33
-0.29087803 0.55972505 1.7695875 34
-0.31587255 0.60808039 1.4806439 37
-0.33488744 0.64496082 1.25887 35
-0.34687015 0.66832352 1.071826 35
-0.35805339 0.6901651 0.92118204 35
-0.36181217 0.69267154 0.84774739 34
-0.35990885 0.6893208 0.70940745 34
-0.34537956 0.66177487 0.57402658 34
-0.3592211 0.68858933 0.49310356 33
-0.25545666 0.48989227 0.3115418 39
-0.21966583 0.42143512 0.22963315 62
-0.75380522 1.4461968 0.40110204 27
-4.6664066 8.9564476 0.99960506 13
-0.36516184 0.70206743 0.78597403 34
-0.34613609 0.66577196 0.62992519 34
-0.35068822 0.67481542 0.53250998 34
-0.32071921 0.61714727 0.40897787 35
-0.10474612 0.20164481 0.16822791 98
-0.26661289 0.51347065 0.23025882 44
-4.5738316 8.8125181 1.4770116 30
-4.6932635 9.0464897 0.50478846 12
-0.02318842 0.044773228 4.184114 36
-0.21974568 0.42429471 3.0380678 3
-0.23473962 0.45343947 2.4782455 32
-0.27431643 0.53011543 1.9553436 35
-0.30206397 0.58398712 1.6085005 35
-0.32135004 0.62153906 1.3495466 32
-0.33879662 0.65556377 1.1564378 34
-0.34952116 0.67660517 0.98840851 34
-0.11304151 0.21910766 4.102572 27
-0.19170199 0.37173402 3.8576982 5
-0.25612384 0.49686891 2.1897407 33
-0.28813204 0.55920303 1.7648948 34
-0.31374803 0.60917932 1.4806439 37
-0.33144033 0.64380699 1.2546041 35
-0.3431564 0.66685092 1.0678359 35
-0.35564208 0.69141072 0.92118204 35
-0.35939214 0.69393027 0.84774739 34
-0.35750046 0.69057292 0.70940745 34
-0.34306741 0.66297644 0.57402658 33
-0.35681528 0.68983907 0.49310356 33
-0.2494868 0.48254484 0.30779573 40
-0.2137886 0.41367611 0.22681308 65
-0.75100774 1.4531832 0.40203464 27
-4.6351147 8.972682 0.99960506 13
-0.36099759 0.70001936 0.7826485 34
-0.34381002 0.66697621 0.62992519 34
-0.34833053 0.67603552 0.53250998 34
-0.32479936 0.6303665 0.41527203 34
-0.099717289 0.19361302 0.16494089 99
-0.26036933 0.50575501 0.22791418 43
-4.5385113 8.819623 1.4756302 32
-4.6616569 9.0628176 0.50478846 12
-0.023031989 0.0448539 4.184114 36
-0.21932805 0.42713279 3.0528855 2
-0.23269044 0.45335022 2.4733503 32
-0.27178296 0.5297417 1.9505717 35
-0.29913214 0.58329958 1.6038979 37
-0.31808597 0.62052572 1.3451575 32
-0.33522302 0.65423805 1.1523049 34
-0.34715724 0.6778211 0.98840851 34
-0.11214452 0.2192439 4.0975804 27
-0.18967523 0.37097707 3.8427839 6
-0.25438789 0.49775988 2.1897407 33
-0.28539327 0.55866861 1.7602021 34
-0.3116197 0.6102708 1.4806439 37
-0.329191 0.64496005 1.2546041 35
-0.34082654 0.66804469 1.0678359 35
-0.35322642 0.69264793 0.92118204 35
-0.35696766 0.69518054 0.84774739 34
-0.35686511 0.69527942 0.71254593 34
-0.34075111 0.66416997 0.57402658 33
-0.35440511 0.69108039 0.49310356 32
-0.24357139 0.47516179 0.30404967 39
-0.20796826 0.40588135 0.223993 59
nan nan nan 0
nan nan nan 0
-0.35855192 0.70127517 0.7826485 34
-0.34147975 0.66817224 0.62992519 34
-0.34400749 0.67340833 0.52997679 34
-0.32672632 0.63957971 0.4194681 34
-0.096893363 0.18975434 0.16329738 99
-0.25197324 0.49367285 0.22439724 46
-4.5031958 8.8265886 1.4742488 32
nan nan nan 0
-0.022875281 0.044934023 4.184114 34
nan nan nan 0
-0.23064478 0.45325226 2.4684551 32
-0.26925537 0.5293566 1.9457997 34
-0.29709423 0.58434016 1.6038979 35
-0.31591803 0.62163228 1.3451575 32
-0.33293721 0.65540427 1.1523049 34
-0.34333795 0.67617083 0.98457098 34
-0.11137853 0.21963403 4.0975804 26
-0.18741509 0.36973509 3.8228979 6
-0.25208071 0.49752355 2.1849012 33
-0.28344139 0.55966139 1.7602021 34
-0.30850431 0.60941255 1.4761426 37
-0.32693765 0.64610517 1.2546041 35
-0.33713251 0.66654146 1.0638459 35
-0.34927687 0.69085121 0.91750687 34
-0.35453883 0.69642234 0.84774739 34
-0.35443595 0.69652092 0.71254593 33
-0.33843064 0.66535532 0.57402658 33
-0.35199064 0.69231319 0.49310356 32
-0.2377106 0.46774346 0.30030361 39
-0.20003241 0.39377421 0.21976292 56
nan nan nan 0
nan nan nan 0
-0.35441366 0.69919217 0.77932298 34
-0.33914527 0.66936016 0.62992519 33
-0.34165478 0.67460501 0.52997679 33
-0.33064345 0.65286291 0.42576227 33
nan nan nan 0
-0.24585931 0.48587546 0.2220526 46
-4.4678879 8.8334169 1.4728674 30
nan nan nan 0
-0.022718292 0.045013599 4.184114 34
nan nan nan 0
-0.22906123 0.45405459 2.4684551 32
-0.26673388 0.52896047 1.9410278 34
-0.29505268 0.58537364 1.6038979 35
-0.31374618 0.62273133 1.3451575 32
-0.32938167 0.65404904 1.1481719 34
-0.34097558 0.67736518 0.98457098 34
-0.11061119 0.22002146 4.0975804 26
-0.1854053 0.36895809 3.8079834 6
-0.25034249 0.49840045 2.1849012 33
-0.2807118 0.55910522 1.7555093 34
-0.30637521 0.61048573 1.4761426 37
-0.32468033 0.64724255 1.2546041 35
-0.33480382 0.66771418 1.0638459 35
-0.34686324 0.69206625 0.91750687 35
-0.35210571 0.69765568 0.84774739 33
-0.35200247 0.69775391 0.71254593 33
-0.33610606 0.66653264 0.57402658 33
-0.34957182 0.69353765 0.49310356 31
-0.23190461 0.4602901 0.29655755 38
-0.19218369 0.38161671 0.21553281 68
nan nan nan 0
nan nan nan 0
-0.35197085 0.70042497 0.77932298 33
-0.33680674 0.67053992 0.62992519 33
-0.33929789 0.67579353 0.52997679 33
-0.33243534 0.66212511 0.42995837 32
nan nan nan 0
-0.2376235 0.47369677 0.21853565 56
-4.4325862 8.8401051 1.471486 29
nan nan nan 0
-0.022541504 0.045053605 4.1791148 35
nan nan nan 0
-0.22701941 0.45394072 2.4635599 32
-0.26488581 0.52988833 1.9410278 34
-0.29213431 0.58465236 1.5992955 35
-0.31050041 0.62168008 1.3407685 32
-0.32709661 0.65519488 1.1481719 34
-0.33860907 0.67855126 0.98457098 34
-0.10984249 0.22040623 4.0975804 26
-0.18316555 0.36769453 3.7880974 6
-0.24804096 0.49814612 2.1800618 33
-0.27875844 0.56008166 1.7555093 34
-0.30327269 0.60960239 1.4716414 37
-0.32125783 0.64603668 1.2503382 35
-0.33247104 0.66887879 1.0638459 35
-0.34293693 0.69023669 0.91383171 34
-0.34966832 0.69888055 0.84774739 33
-0.34956473 0.6989783 0.71254593 32
-0.33564702 0.67144191 0.57676804 32
-0.34714884 0.69475365 0.49310356 31
-0.22408219 0.44865456 0.29093844 39
-0.18442239 0.3694095 0.21130273 69
nan nan nan 0
nan nan nan 0
-0.34952378 0.70164931 0.77932298 33
-0.33446407 0.6717115 0.62992519 33
-0.33693683 0.67697382 0.52997679 33
-0.33214432 0.66734469 0.43205646 31
nan nan nan 0
-0.22947583 0.46146673 0.21501869 55
-4.397294 8.8466549 1.4701047 28
nan nan nan 0
-0.022384102 0.045132015 4.1791148 35
nan nan nan 0
-0.22543348 0.45473039 2.4635599 32
-0.26303458 0.5308097 1.9410278 34
-0.29009172 0.58566856 1.5992955 37
-0.30832845 0.62276018 1.3407685 32
-0.32355943 0.65381062 1.1440389 34
-0.33481729 0.67685616 0.98073345 34
-0.10907247 0.2207883 4.0975804 25
-0.18093687 0.36641982 3.7682114 7
-0.24630061 0.49900889 2.1800618 33
-0.2760382 0.55950373 1.7508165 34
-0.30114293 0.61065733 1.4716414 37
-0.31900078 0.64715415 1.2503382 35
-0.33013415 0.67003524 1.0638459 34
-0.34052545 0.69142956 0.91383171 34
-0.34564206 0.69690192 0.84424287 33
-0.3471227 0.7001943 0.71254593 32
-0.33330125 0.67260939 0.57676804 32
-0.34472159 0.69596124 0.49310356 30
-0.21634391 0.43697023 0.28531936 39
-0.17462102 0.35285345 0.20566258 72
nan nan nan 0
nan nan nan 0
-0.34707242 0.70286512 0.77932298 33
-0.33211732 0.67287493 0.62992519 33
-0.33457175 0.67814583 0.52997679 32
-0.33382896 0.67664027 0.43625253 31
nan nan nan 0
-0.2214165 0.44918576 0.21150175 55
-4.3598204 8.8486242 1.4680326 27
nan nan nan 0
-0.022226425 0.045209877 4.1791148 35
nan nan nan 0
-0.22339576 0.45460072 2.4586647 32
-0.26052201 0.53038484 1.9362557 34
-0.28804556 0.58667761 1.5992955 35
-0.30615273 0.62383258 1.3407685 32
-0.32127523 0.65493602 1.1440389 34
-0.33245257 0.67802083 0.98073345 33
-0.1083011 0.2211677 4.0975804 24
-0.17871936 0.36513403 3.7483253 6
-0.24400482 0.4987365 2.1752224 33
-0.27408347 0.56046385 1.7508165 34
-0.2980535 0.60974896 1.4671402 36
-0.31673986 0.64826375 1.2503382 35
-0.32779333 0.67118353 1.0638459 34
-0.33662263 0.68956751 0.91015655 34
-0.3432073 0.6981042 0.84424287 33
-0.34467643 0.70140171 0.71254593 32
-0.33095136 0.67376876 0.57676804 31
-0.3422901 0.6971603 0.49310356 30
-0.20664756 0.4210757 0.2778272 40
-0.16705026 0.34054044 0.2014325 77
nan nan nan 0
nan nan nan 0
-0.34461686 0.7040723 0.77932298 33
-0.32976651 0.67403013 0.62992519 33
-0.33220252 0.67930949 0.52997679 31
-0.33345884 0.68187851 0.43835059 30
nan nan nan 0
-0.21344577 0.43685424 0.20798479 56
-4.3223863 8.8504391 1.4659605 24
nan nan nan 0
-0.022068478 0.045287184 4.1791148 35
nan nan nan 0
-0.22180755 0.45537776 2.4586647 32
-0.25866905 0.53129101 1.9362557 34
-0.28599593 0.58767951 1.5992955 34
-0.30292565 0.62274379 1.3363794 32
-0.31898713 0.65605348 1.1440389 34
-0.33008379 0.67917717 0.98073345 33
-0.10765448 0.2218041 4.102572 23
-0.17674568 0.36431688 3.7334106 6
-0.24171399 0.49845421 2.170383 33
-0.27212542 0.56141722 1.7508165 34
-0.29592326 0.61078566 1.4671402 36
-0.31333834 0.64701813 1.2460723 35
-0.32413557 0.66961145 1.0598558 34
-0.33421353 0.69073832 0.91015655 33
-0.3407684 0.69929796 0.84424287 33
-0.342226 0.70260054 0.71254593 32
-0.33042786 0.67867947 0.5795095 30
-0.33985448 0.69835091 0.49310356 29
-0.19909282 0.40928793 0.27220812 40
-0.16166528 0.33249322 0.19861242 79
nan nan nan 0
nan nan nan 0
-0.3421571 0.70527101 0.77932298 32
-0.32741168 0.6751771 0.62992519 32
-0.32794899 0.67658585 0.52744359 31
-0.33107659 0.68303835 0.43835059 29
nan nan nan 0
-0.20768246 0.42884737 0.20564017 61
-4.2871513 8.8565588 1.4645792 23
nan nan nan 0
-0.021910261 0.045363948 4.1791148 35
nan nan nan 0
-0.21977395 0.45523226 2.4537694 32
-0.25681287 0.53219068 1.9362557 33
-0.28309408 0.58691454 1.5946929 36
-0.30075002 0.62379736 1.3363794 32
-0.31547347 0.65462798 1.139906 34
-0.32771102 0.68032521 0.98073345 33
-0.10687958 0.22217855 4.102572 22
-0.17477991 0.36349037 3.7184963 6
-0.23997261 0.499295 2.170383 33
-0.26941678 0.56080812 1.7461238 33
-0.29284707 0.60985249 1.4626391 36
-0.31107789 0.64810801 1.2460723 34
-0.32179621 0.67073882 1.0598558 34
-0.3318004 0.69190073 0.91015655 33
-0.33677429 0.69727194 0.8407383 32
-0.33977136 0.7037909 0.71254593 32
-0.32805678 0.6798287 0.5795095 30
-0.33741474 0.69953293 0.49310356 29
-0.19162294 0.39745262 0.26658902 41
-0.154256 0.32009122 0.19438232 79
nan nan nan 0
nan nan nan 0
-0.33969316 0.70646101 0.77932298 32
-0.32505292 0.6763159 0.62992519 32
-0.32558528 0.67772645 0.52744359 30
-0.33065566 0.68828076 0.44044864 29
nan nan nan 0
-0.19987443 0.41642371 0.20212319 62
-4.249784 8.8580761 1.4625071 21
nan nan nan 0
-0.021751776 0.045440149 4.1791148 35
nan nan nan 0
-0.21818355 0.45599666 2.4537694 32
-0.25495362 0.53308392 1.9362557 33
-0.28104359 0.58789921 1.5946929 36
-0.29753813 0.62268239 1.3319902 32
-0.3131865 0.65572518 1.139906 33
-0.32395336 0.67857242 0.97689599 33
-0.10622763 0.22281086 4.107564 22
-0.1730514 0.36313587 3.7085533 6
-0.23768771 0.49899474 2.1655436 33
-0.26745754 0.56174523 1.7461238 33
-0.2907165 0.61087102 1.4626391 36
-0.30881369 0.64918989 1.2460723 34
-0.31945291 0.67185801 1.0598558 34
-0.32938316 0.69305474 0.91015655 33
-0.33433828 0.69844323 0.8407383 32
-0.33563265 0.70146149 0.70940745 31
-0.32568175 0.68096972 0.5795095 30
-0.33497083 0.70070648 0.49310356 27
-0.18623693 0.38975325 0.26284295 48
-0.14900284 0.31197038 0.19156227 79
nan nan nan 0
nan nan nan 0
-0.33722508 0.7076425 0.77932298 32
-0.32269013 0.67744637 0.62992519 31
-0.32136443 0.67496669 0.52491039 29
-0.32825109 0.68943077 0.44044864 29
nan nan nan 0
-0.19215576 0.4039509 0.19860625 62
-4.2124577 8.8594389 1.460435 18
nan nan nan 0
-0.021593029 0.045515798 4.1791148 35
nan nan nan 0
-0.21615425 0.45583552 2.4488742 32
-0.25245193 0.53262174 1.9314837 34
-0.27898973 0.58887661 1.5946929 34
-0.29536274 0.62371725 1.3319902 32
-0.30969173 0.65427089 1.1357731 33
-0.32158273 0.67969918 0.97689599 33
-0.10544921 0.22318032 4.107564 22
-0.17155512 0.36325571 3.7035818 7
-0.23594444 0.49982139 2.1655436 33
-0.26475868 0.56111467 1.741431 34
-0.2876538 0.60991317 1.4581379 36
-0.30543363 0.64790481 1.2418063 34
-0.31582135 0.6702432 1.0558658 33
-0.32696193 0.69420028 0.91015655 32
-0.33189821 0.69960606 0.8407383 32
-0.33318204 0.70262885 0.70940745 31
-0.32330272 0.68210244 0.5795095 30
-0.33252287 0.70187145 0.49310356 27
-0.17892294 0.37783137 0.25722387 48
-0.14586061 0.30815274 0.19015223 76
nan nan nan 0
nan nan nan 0
-0.33475289 0.70881528 0.77932298 32
-0.31859797 0.67491347 0.62698203 31
-0.31716689 0.67218572 0.52237725 29
-0.32584253 0.69057238 0.44044864 29
nan nan nan 0
-0.18452665 0.39142945 0.1950893 67
-4.1730638 8.8561707 1.4576725 16
nan nan nan 0
-0.021434017 0.0455909 4.1791148 35
nan nan nan 0
-0.21456175 0.4565872 2.4488742 32
-0.24995659 0.53214866 1.9267118 34
-0.27693248 0.58984685 1.5946929 34
-0.29318377 0.62474442 1.3319902 32
-0.30740604 0.65534794 1.1357731 33
-0.31920817 0.68081748 0.97689599 32
-0.10479195 0.2238085 4.1125555 20
-0.17028606 0.36385235 3.7035818 7
-0.2336657 0.4995034 2.1607041 33
-0.2627984 0.56203544 1.741431 33
-0.28552306 0.61091352 1.4581379 36
-0.30317014 0.64896703 1.2418063 33
-0.31347984 0.6713416 1.0558658 33
-0.32453674 0.69533736 0.91015655 32
-0.32945409 0.7007603 0.8407383 32
-0.33072737 0.70378757 0.70940745 31
-0.31914207 0.67944211 0.57676804 29
-0.32818824 0.69901806 0.49078476 28
-0.17366399 0.37006009 0.25347778 40
-0.14070971 0.29997399 0.18733215 76
nan nan nan 0
nan nan nan 0
-0.33227661 0.70997947 0.77932298 31
-0.31624013 0.67602146 0.62698203 31
-0.31299269 0.66938376 0.51984406 28
-0.3215076 0.68759429 0.43835059 29
nan nan nan 0
-0.17698739 0.37885985 0.19157234 72
-4.135839 8.8572226 1.4556004 16
nan nan nan 0
-0.021274745 0.045665435 4.1791148 35
nan nan nan 0
-0.21253683 0.45641035 2.443979 32
-0.24809752 0.53301787 1.9267118 33
-0.27404773 0.58903861 1.5900904 36
-0.29100123 0.62576401 1.3319902 31
-0.30511656 0.65641701 1.1357731 33
-0.31682971 0.68192762 0.97689599 32
-0.10413157 0.22443478 4.117547 19
-0.16901496 0.36444449 3.7035818 7
-0.23192069 0.50031602 2.1607041 33
-0.26010945 0.56138361 1.7367382 33
-0.28338882 0.61190647 1.4581379 36
-0.30090296 0.65002137 1.2418063 33
-0.31113452 0.67243171 1.0558658 33
-0.32210761 0.69646597 0.91015655 32
-0.32851204 0.70513874 0.84424287 31
-0.32826868 0.70493776 0.70940745 30
-0.31676841 0.68055189 0.57676804 28
-0.3238776 0.69614303 0.48846596 28
-0.16846155 0.36225677 0.24973172 40
-0.13763972 0.29611325 0.18592213 76
nan nan nan 0
nan nan nan 0
-0.32822543 0.70774782 0.77599752 31
-0.31387845 0.67712122 0.62698203 30
-0.30884191 0.66656089 0.51731086 28
-0.31910551 0.68871236 0.43835059 28
nan nan nan 0
-0.16953821 0.3662425 0.1880554 72
-4.0986581 8.8581228 1.4535284 14
nan nan nan 0
-0.021115214 0.045739423 4.1791148 35
nan nan nan 0
-0.21094236 0.45714948 2.443979 32
-0.24561025 0.53252518 1.9219398 33
-0.27198994 0.58999169 1.5900904 36
-0.28781283 0.62460083 1.3276012 31
-0.30282339 0.65747803 1.1357731 32
-0.3144474 0.68302941 0.97689599 32
-0.10346811 0.22505923 4.1225386 18
-0.16796435 0.36551666 3.7085533 7
-0.23017286 0.50112253 2.1607041 33
-0.25814828 0.56228817 1.7367382 33
-0.28125113 0.61289191 1.4581379 36
-0.29754478 0.64869714 1.2375402 33
-0.30878541 0.67351371 1.0558658 33
-0.31967449 0.69758606 0.91015655 32
-0.32604864 0.70628113 0.84424287 31
-0.32580602 0.70607936 0.70940745 30
-0.31263968 0.6778565 0.57402658 28
-0.32144564 0.69726932 0.48846596 27
-0.16137557 0.35021135 0.24411261 45
-0.13259163 0.28787765 0.18310207 66
nan nan nan 0
nan nan nan 0
-0.32575294 0.70888925 0.77599752 31
-0.31151298 0.6782127 0.62698203 30
-0.30471471 0.66371727 0.51477772 27
-0.3148059 0.68569744 0.43625253 28
nan nan nan 0
-0.16217935 0.35357794 0.18453845 69
-4.0635848 8.8633728 1.452147 13
nan nan nan 0
-0.020973573 0.045852527 4.184114 35
nan nan nan 0
-0.20892195 0.45695701 2.4390838 32
-0.24374989 0.53337932 1.9219398 33
-0.26992881 0.5909375 1.5900904 35
-0.28563082 0.62560171 1.3276012 31
-0.3005265 0.65853113 1.1357731 31
-0.31206128 0.68412286 0.97689599 32
-0.10280155 0.22568174 4.1275306 18
-0.16536212 0.36318991 3.6787243 7
-0.22842219 0.50192291 2.1607041 33
-0.25546941 0.56161505 1.7320454 33
-0.27911001 0.61387002 1.4581379 36
-0.29527861 0.64973181 1.2375402 33
-0.30643249 0.67458743 1.0558658 32
-0.31583598 0.69561088 0.90648139 32
-0.32358128 0.70741493 0.84424287 31
-0.3217209 0.70367247 0.70626903 30
-0.31027162 0.67894369 0.57402658 27
-0.31716922 0.69435781 0.48614717 27
-0.15437585 0.33812106 0.23849353 49
-0.12959433 0.28397462 0.18169203 66
nan nan nan 0
nan nan nan 0
-0.32327646 0.71002197 0.77599752 30
-0.30914363 0.67929596 0.62698203 30
-0.29882619 0.65692908 0.50971133 27
-0.31241044 0.68679219 0.43625253 27
nan nan nan 0
-0.15692207 0.34529173 0.18219382 73
-4.0285249 8.8684864 1.4507656 11
nan nan nan 0
-0.020813391 0.045925457 4.184114 35
nan nan nan 0
-0.20732561 0.45768347 2.4390838 32
-0.24188656 0.53422689 1.9219398 33
-0.26705894 0.59009624 1.5854878 35
-0.2834453 0.62659496 1.3276012 31
-0.298226 0.65957612 1.1357731 31
-0.30967137 0.68520802 0.97689599 31
-0.10213191 0.22630234 4.1325221 17
