# .PCD v0.7 - Point Cloud Data file format
VERSION 0.7
FIELDS x y z intensity
SIZE 4 4 4 4
TYPE F F F F
COUNT 1 1 1 1
WIDTH 1350
HEIGHT 1
VIEWPOINT 0 0 0 1 0 0 0
POINTS 1350
DATA ascii
-1.0920528 -1.0063066 4.0925069 23
-1.3461959 -1.2400607 3.8482826 13
-1.4171169 -1.304933 3.2211998 26
-1.2700821 -1.1691285 2.3606038 32
-1.1758564 -1.0820131 1.8105719 35
-1.1311061 -1.0466827 1.5942158 35
-1.0651529 -0.98530692 1.2523605 36
-1.0208524 -0.94399691 0.99621236 38
-0.85006601 -0.78579301 0.69252038 39
-0.84159166 -0.77768707 0.55129004 37
-0.8212772 -0.75864953 0.41857752 38
-0.79382992 -0.73329526 0.29664856 36
-0.76816744 -0.70934117 0.18681535 37
-1.0978038 -1.0123152 1.411168 36
nan nan nan 0
-1.0094171 -0.93015945 0.89222133 39
-0.84522557 -0.77885997 0.61878312 39
-0.83397853 -0.76822698 0.48378164 38
-0.81176877 -0.74750626 0.3568691 37
-0.78689134 -0.72434461 0.24138483 36
-0.73139668 -0.67302513 0.13377005 56
-0.037930362 -0.03485433 4.3091092 4
-0.48056602 -0.44159368 4.1494012 17
-0.63473254 -0.58305347 4.167099 10
-0.9366129 -0.86005384 4.1122808 15
-1.2615455 -1.1580205 4.0938635 26
-1.4472725 -1.3280408 3.6669803 33
-1.3380361 -1.2273738 2.739357 30
-1.2274896 -1.1255758 2.0705848 33
-0.18627474 -0.17062956 4.207397 14
-0.3304829 -0.30261967 4.1361032 17
-0.78876847 -0.72201371 4.1545472 7
-1.0968318 -1.0036536 4.0971999 24
-1.3585478 -1.2427006 3.8707883 13
-1.4312867 -1.308778 3.2425294 26
-1.2808278 -1.170787 2.3725739 32
-1.1846315 -1.0824758 1.8179222 35
-1.1400046 -1.047554 1.6012248 35
-1.0743186 -0.98684907 1.2586373 37
-1.0272213 -0.9432559 0.99895382 37
-0.85606718 -0.78581655 0.69483918 39
-0.84771705 -0.777879 0.55316305 38
-0.82745552 -0.75902086 0.41998756 37
-0.80000484 -0.73384047 0.2975812 36
-0.77430922 -0.7100212 0.18726245 36
-1.1068382 -1.01352 1.417819 37
nan nan nan 0
-1.0158379 -0.92954028 0.89475447 39
-0.85128742 -0.77896863 0.62088114 39
-0.84013939 -0.7684983 0.48542514 38
-0.81796014 -0.74794823 0.35804144 37
-0.79307014 -0.72493452 0.24207553 37
-0.74849391 -0.68394822 0.13457619 54
-0.038116258 -0.03478054 4.3191094 3
-0.48382643 -0.44148466 4.1642189 16
-0.63676393 -0.58083433 4.167099 9
-0.93850636 -0.85577339 4.1075087 16
-1.2655801 -1.1536099 4.0938635 27
-1.4518993 -1.3229809 3.6669803 34
-1.3485533 -1.2283807 2.751756 30
-1.2361511 -1.1256001 2.0782599 34
-0.18708277 -0.17017256 4.2123885 14
-0.33232599 -0.30218142 4.1460457 17
-0.79128391 -0.71925604 4.1545472 8
-1.1003287 -0.9998188 4.0971999 24
-1.3709345 -1.2452693 3.8932943 14
-1.4435698 -1.3107867 3.259593 27
-1.2916001 -1.1723846 2.3845439 33
-1.1934242 -1.0828905 1.8252726 35
-1.1489232 -1.048376 1.6082339 36
-1.0835083 -0.98833925 1.2649143 37
-1.0366873 -0.94529921 1.0044367 38
-0.86207879 -0.78580773 0.69715798 39
-0.85385382 -0.77803761 0.55503613 38
-0.8336463 -0.75935811 0.4213976 37
-0.80619305 -0.73435134 0.29851383 36
-0.78414732 -0.71401972 0.1881566 36
-1.1158944 -1.0146741 1.4244701 37
nan nan nan 0
-1.022267 -0.92888772 0.89728767 39
-0.8573603 -0.77904445 0.62297922 39
-0.84980774 -0.77191108 0.48871216 39
-0.82416451 -0.74835593 0.35921374 37
-0.8029294 -0.72881842 0.24345687 37
-0.76197636 -0.69140285 0.13518077 49
-0.038269769 -0.034676578 4.3241091 3
-0.48651618 -0.44083664 4.1740975 15
-0.63878751 -0.57860804 4.167099 8
-0.94148785 -0.85249221 4.1075087 17
-1.2695992 -1.1491852 4.0938635 28
-1.4565086 -1.3179048 3.6669803 34
-1.3611808 -1.2312167 2.7682879 30
-1.2472049 -1.1277273 2.0897722 34
-0.18788989 -0.16971201 4.2173805 14
-0.33377442 -0.30137682 4.1510172 16
-0.79285669 -0.71564734 4.1497078 9
-1.1050931 -0.99712795 4.1018925 26
-1.3817389 -1.2463084 3.9112992 15
-1.457821 -1.3144723 3.2809227 28
-1.3023995 -1.1739212 2.3965139 33
-1.2022339 -1.0832567 1.8326229 36
-1.1578611 -1.0491482 1.615243 36
-1.0898364 -0.98716408 1.2680528 37
-1.0430802 -0.94448137 1.0071782 38
-0.86810076 -0.78576642 0.69947678 39
-0.8600021 -0.77816284 0.55690914 38
-0.83984947 -0.75966144 0.42280763 38
-0.81603765 -0.73812312 0.30037907 35
-0.79032874 -0.71461815 0.18860367 36
-1.124972 -1.0157772 1.4311211 37
nan nan nan 0
-1.0319042 -0.9310894 0.902354 39
-0.86344403 -0.77908736 0.62507725 39
-0.85600346 -0.77210271 0.49035567 39
-0.83038163 -0.74872941 0.36038607 37
-0.80914694 -0.72932673 0.24414757 36
-0.77180821 -0.6954273 0.13558383 47
-0.038423017 -0.034571968 4.3291092 3
-0.48978484 -0.44069481 4.1889153 15
-0.64156044 -0.57705569 4.1719947 8
-0.94334787 -0.84820253 4.1027365 18
-1.2750558 -1.1460522 4.0984664 29
-1.4628817 -1.3144133 3.6713693 34
-1.371751 -1.2320989 2.7806866 31
-1.2559037 -1.1276497 2.0974472 34
-0.18869604 -0.16924785 4.2223716 13
-0.33561814 -0.30092156 4.1609602 16
-0.79534996 -0.71287543 4.1497078 10
-1.1085671 -0.99326432 4.1018925 27
-1.3941889 -1.2487398 3.9338055 15
-1.4701725 -1.3163342 3.2979865 29
-1.3132249 -1.1753967 2.408484 33
-1.2110609 -1.0835745 1.8399732 36
-1.1668186 -1.0498711 1.6222522 36
-1.0990634 -0.98855978 1.2743297 37
-1.0525894 -0.94642603 1.0126612 38
-0.87742734 -0.78865385 0.70411432 39
-0.86616153 -0.77825457 0.55878216 38
-0.84606498 -0.75993079 0.42421764 38
-0.82226372 -0.73855269 0.30131167 35
-0.80022943 -0.71850926 0.18949783 35
-1.1340706 -1.0168291 1.437772 37
nan nan nan 0
-1.0383587 -0.93035835 0.9048872 39
-0.86953849 -0.77909726 0.62717533 39
-0.86221093 -0.77226067 0.49199918 39
-0.83661121 -0.74906856 0.36155838 37
-0.81537777 -0.72980058 0.24483827 36
-0.78540051 -0.70272261 0.13618843 42
-0.038575996 -0.034466702 4.3341084 3
-0.49247894 -0.44001779 4.1987934 14
-0.64357078 -0.57481271 4.1719947 7
-0.94630283 -0.84490448 4.1027365 18
-1.2790484 -1.1415945 4.0984664 29
-1.4674608 -1.3092989 3.6713693 34
-1.3844436 -1.2347953 2.7972186 31
-1.2670096 -1.1296581 2.1089599 33
-0.18950127 -0.16878016 4.2273636 12
-0.33746278 -0.30045715 4.1709032 16
-0.7978335 -0.71009481 4.1497078 11
-1.1133168 -0.9905358 4.1065855 27
-1.4050459 -1.2496526 3.9518104 16
-1.4825548 -1.3181258 3.3150501 29
-1.3240767 -1.1768109 2.420454 33
-1.2224391 -1.0860956 1.8509985 35
-1.1784543 -1.0529197 1.6327658 36
-1.1083134 -0.98990297 1.2806066 37
-1.0590057 -0.94553095 1.0154027 37
-0.88347983 -0.78853595 0.70643312 39
-0.8723321 -0.77831268 0.56065518 38
-0.85229236 -0.76016575 0.42562768 38
-0.82850271 -0.73894757 0.30224431 36
-0.80644971 -0.71902567 0.18994491 35
-1.1431905 -1.01783 1.4444231 37
nan nan nan 0
-1.0480411 -0.932459 0.90995359 39
-0.87903422 -0.78209084 0.63137144 39
-0.86842984 -0.77238441 0.49364269 39
-0.84285343 -0.74937326 0.36273068 37
-0.8253231 -0.73352945 0.24621961 36
-0.79531831 -0.70661336 0.13659149 40
-0.03872871 -0.034360792 4.3391085 2
-0.49459314 -0.43881175 4.203733 12
-0.64557332 -0.57256269 4.1719947 7
-0.94812942 -0.84060585 4.0979643 20
-1.2844877 -1.1384187 4.1030688 30
-1.4720222 -1.3041686 3.6713693 34
-1.3950652 -1.2355524 2.8096173 31
-1.2757449 -1.1294779 2.1166348 34
-0.19030552 -0.16830891 4.2323551 11
-0.33930826 -0.29998353 4.1808467 15
-0.80030733 -0.70730549 4.1497078 12
-1.1167675 -0.98664355 4.1065855 28
-1.4159263 -1.2505047 3.969815 16
-1.4969224 -1.3215733 3.33638 29
-1.3349541 -1.1781634 2.4324241 34
-1.231307 -1.0863075 1.8583488 36
-1.1874578 -1.0535334 1.6397748 36
-1.117586 -0.99119353 1.2868835 37
-1.0685574 -0.94737655 1.0208856 38
-0.8895421 -0.78838539 0.70875192 39
-0.87851351 -0.77833724 0.56252825 38
-0.85853183 -0.76036662 0.42703772 38
-0.83475441 -0.73930794 0.30317691 36
-0.81268328 -0.7195074 0.19039199 35
-1.152331 -1.0187796 1.451074 37
-1.04079 -0.9198423 1.0949445 34
-1.0545201 -0.93164915 0.91248679 39
-0.88516009 -0.78202266 0.63346946 39
-0.87466019 -0.77247441 0.49528623 39
-0.85275167 -0.75286049 0.36507532 37
-0.83159143 -0.73392081 0.2469103 36
-0.8052727 -0.7104432 0.13699456 40
-0.038848415 -0.034225397 4.3391085 2
-0.49728793 -0.43810987 4.2136116 11
-0.64756799 -0.57030576 4.1719947 7
-0.95105791 -0.83729106 4.0979643 21
-1.2884537 -1.1339282 4.1030688 30
-1.4765656 -1.2990222 3.6713693 34
-1.4078221 -1.2381086 2.826149 31
-1.2869014 -1.1313667 2.1281471 34
-0.19110878 -0.1678341 4.2373471 11
-0.34075385 -0.29914895 4.1858177 15
-0.80182666 -0.70367849 4.1448684 14
-1.1202048 -0.98273933 4.1065855 30
-1.4284662 -1.2527314 3.9923213 17
-1.509371 -1.3232169 3.3534436 29
-1.3458571 -1.1794543 2.4443944 34
-1.2427417 -1.0887047 1.8693745 36
-1.1964798 -1.0540969 1.6467839 35
-1.1268812 -0.9924314 1.2931604 37
-1.0781348 -0.94916677 1.0263685 38
-0.89561403 -0.78820211 0.71107072 39
-0.88470572 -0.77832806 0.56440127 38
-0.86478305 -0.76053309 0.42844775 38
-0.84101862 -0.73963356 0.30410954 36
-0.81892997 -0.71995425 0.19083907 35
-1.1614919 -1.0196775 1.457725 37
-1.0804507 -0.94819731 1.1302625 36
-1.0642469 -0.93364823 0.91755313 39
-0.89129615 -0.78192103 0.63556755 39
-0.88090163 -0.77253008 0.49692973 39
-0.85902941 -0.75308347 0.36624765 38
-0.83787256 -0.73427731 0.24760097 36
-0.81526345 -0.71421212 0.13739762 39
-0.039000489 -0.03411831 4.3441086 2
-0.49939895 -0.43688294 4.2185507 9
-0.64955479 -0.5680418 4.1719947 7
-0.95509869 -0.83494866 4.1027365 22
-1.2938752 -1.1307093 4.1076717 31
-1.481091 -1.2938602 3.6713693 35
-1.4206136 -1.2405908 2.8426807 31
-1.2956719 -1.1310836 2.1358223 34
-0.19169347 -0.16716596 4.2373471 10
-0.34259966 -0.29865822 4.1957607 14
-0.80333036 -0.70004952 4.140029 15
-1.1236284 -0.97882307 4.1065855 30
-1.4393972 -1.2534561 4.0103264 17
-1.5238161 -1.3265021 3.3747735 29
-1.3567854 -1.1806835 2.4563644 34
-1.2542077 -1.0910351 1.8803998 37
-1.2055204 -1.0546103 1.653793 35
-1.1361985 -0.99361646 1.2994373 36
-1.0877376 -0.95090187 1.0318514 38
-0.9050312 -0.79090101 0.71570832 39
-0.89090842 -0.77828509 0.56627429 38
-0.87465894 -0.76382059 0.43126783 38
-0.84729534 -0.73992449 0.30504215 36
-0.82518971 -0.72036636 0.19128615 35
-1.1734878 -1.0229776 1.4677016 37
-1.0989903 -0.95769763 1.1449783 37
-1.07075 -0.93275917 0.92008632 40
-0.89744234 -0.78178626 0.63766557 39
-0.88715404 -0.7725516 0.49857324 39
-0.86531907 -0.7532717 0.36741996 38
-0.84416622 -0.73459893 0.24829164 36
-0.82152092 -0.71464092 0.13759914 39
-0.039152287 -0.034010582 4.3491082 2
-0.50150746 -0.43564659 4.2234898 9
-0.65153366 -0.56577098 4.1719947 7
-0.95800728 -0.83160967 4.1027365 23
-1.2978142 -1.1261859 4.1076717 32
-1.4874076 -1.2902517 3.6757586 35
-1.4334396 -1.2429987 2.8592129 32
-1.3068781 -1.1328523 2.1473348 34
-0.19249405 -0.16668481 4.2423382 10
-0.34404317 -0.29780945 4.2007327 13
-0.80481863 -0.69641852 4.1351895 16
-1.1283433 -0.97602373 4.1112781 30
-1.4519973 -1.2555435 4.0328326 20
-1.5363296 -1.3279971 3.3918371 29
-1.3677382 -1.1818504 2.4683344 34
-1.2631398 -1.0910828 1.8877504 37
-1.2145787 -1.0550733 1.6608021 36
-1.1455379 -0.99474835 1.3057142 37
-1.0942079 -0.94984013 1.0345929 38
-0.91113222 -0.79064035 0.71802717 39
-0.89712173 -0.7782082 0.5681473 38
-0.88094401 -0.76390547 0.43267784 38
-0.85358423 -0.74018061 0.30597478 36
-0.83522522 -0.7240054 0.19218031 35
-1.1826975 -1.0237625 1.4743526 37
-1.1176094 -0.96707988 1.1596941 38
-1.0805199 -0.93465626 0.92515266 40
-0.90703088 -0.7845872 0.64186168 39
-0.89341724 -0.77253872 0.50021678 39
-0.87162036 -0.75342512 0.36859226 38
-0.84672529 -0.73164779 0.24829164 36
-0.831572 -0.71830046 0.1380022 39
-0.03923773 -0.033845205 4.3441086 2
-0.50361347 -0.43440086 4.2284293 8
-0.65350461 -0.56349331 4.1719947 7
-0.962035 -0.82923508 4.1075087 25
-1.3017374 -1.1216489 4.1076717 32
-1.4919024 -1.2850518 3.6757586 35
-1.4462996 -1.2453321 2.8757446 32
-1.3181124 -1.1345565 2.1588473 35
-0.1930747 -0.16601184 4.2423382 9
-0.34548479 -0.2969541 4.2057037 13
-0.80629146 -0.69278592 4.1303501 16
-1.1317433 -0.9720791 4.1112781 31
-1.4646295 -1.2575582 4.0553384 27
-1.5508509 -1.3311193 3.4131668 30
-1.3810029 -1.1849177 2.4842944 34
-1.2746605 -1.0932882 1.8987757 37
-1.2236552 -1.0554857 1.6678112 36
-1.1548988 -0.9958272 1.3119911 37
-1.1038512 -0.95147491 1.0400758 38
-0.91724241 -0.79034662 0.72034597 39
-0.90685785 -0.78112304 0.57189339 39
-0.88724041 -0.76395583 0.43408787 38
-0.85988522 -0.74040174 0.30690739 37
-0.84152174 -0.72433424 0.1926274 36
-1.191927 -1.0244954 1.4810036 37
-1.1240441 -0.96580702 1.1626372 38
-1.087046 -0.93368763 0.92768586 40
-0.91320699 -0.7843734 0.6439597 39
-0.89969122 -0.77249169 0.50186026 39
-0.87793332 -0.75354379 0.3697646 38
-0.85303235 -0.73191237 0.24898234 36
-0.83786637 -0.71864587 0.13820374 39
nan nan nan 0
-0.50630707 -0.43365118 4.2383075 6
-0.65546763 -0.56120872 4.1719947 8
-0.96605778 -0.82684261 4.1122808 25
-1.3056448 -1.1170981 4.1076717 32
-1.496379 -1.2798363 3.6757586 36
-1.4570541 -1.245762 2.8881433 32
-1.3293743 -1.1361958 2.1703598 35
-0.1938726 -0.16552433 4.2473302 8
-0.34692472 -0.29609236 4.2106752 12
-0.8077485 -0.68915135 4.1255107 17
-1.1351297 -0.96812272 4.1112781 31
-1.477293 -1.2594998 4.0778441 31
-1.5634276 -1.3324643 3.4302304 30
-1.3920116 -1.1859523 2.4962647 34
-1.2836308 -1.0932283 1.906126 37
-1.2327493 -1.0558478 1.6748203 36
-1.164281 -0.9968527 1.3182681 37
-1.1103425 -0.95033503 1.0428174 37
-0.92672747 -0.79289985 0.72498357 39
-0.91310203 -0.78096604 0.57376641 38
-0.89354783 -0.76397145 0.43549791 38
-0.86619812 -0.74058783 0.30784002 37
-0.84783071 -0.72462791 0.19307446 36
-1.2011759 -1.0251764 1.4876546 37
-1.1304835 -0.96450102 1.1655804 39
-1.0968584 -0.9354822 0.93275219 39
-0.91939253 -0.78412616 0.64605778 39
-0.90597564 -0.77241009 0.5035038 39
-0.88425773 -0.75362742 0.3709369 38
-0.85935152 -0.73214179 0.24967301 36
-0.84417331 -0.71895611 0.13840526 40
nan nan nan 0
-0.50840956 -0.43238458 4.243247 6
-0.65742266 -0.55891722 4.1719947 9
-0.96893811 -0.82346535 4.1122808 25
-1.3095362 -1.1125337 4.1076717 33
-1.4990119 -1.2730548 3.6713693 36
-1.4699746 -1.2479531 2.904675 32
-1.3406639 -1.1377705 2.1818724 35
-0.1946694 -0.16503328 4.2523217 7
-0.34836286 -0.29522422 4.2156467 10
-0.81014919 -0.68632752 4.1255107 18
-1.138502 -0.96415448 4.1112781 32
-1.4850036 -1.2571485 4.0868468 33
-1.5780233 -1.3354228 3.4515603 30
-1.4030443 -1.1869243 2.5082345 34
-1.2952051 -1.0953084 1.9171517 37
-1.2418606 -1.0561591 1.6818293 37
-1.1707191 -0.99530363 1.3214065 37
-1.1200255 -0.95186901 1.0483003 37
-0.9328655 -0.79252827 0.72730237 39
-0.91935611 -0.78077489 0.57563943 38
-0.89986593 -0.76395237 0.43690795 38
-0.87252265 -0.74073893 0.30877262 37
-0.8541519 -0.7248863 0.19352156 36
-1.2075955 -1.0233911 1.49098 37
-1.1400114 -0.9657743 1.1714667 38
-1.1034068 -0.93443358 0.93528539 39
-0.92558742 -0.78384507 0.64815581 39
-0.91227049 -0.7722941 0.50514728 39
-0.89059329 -0.75367618 0.37210923 38
-0.86568266 -0.73233598 0.25036371 36
-0.85049254 -0.71923101 0.1386068 39
nan nan nan 0
-0.51050943 -0.43110859 4.2481861 5
-0.65936959 -0.55661905 4.1719947 10
-0.97180665 -0.82007813 4.1122808 25
-1.3134117 -1.1079558 4.1076717 33
-1.5034463 -1.2678146 3.6713693 36
-1.482928 -1.2500691 2.921207 32
-1.3519803 -1.1392801 2.1933849 35
-0.1952443 -0.16435274 4.2523217 7
-0.34979913 -0.29434967 4.2206187 9
-0.81157809 -0.68268627 4.1206713 19
-1.1418606 -0.96017444 4.1112781 32
-1.4910493 -1.2533581 4.0913482 35
-1.5926588 -1.3382953 3.4728897 30
-1.4164079 -1.1897719 2.5241947 34
-1.3042129 -1.0951408 1.924502 37
-1.2509891 -1.0564196 1.6888385 36
-1.1801348 -0.99623257 1.3276834 37
-1.1265368 -0.95065027 1.0510417 38
-0.94239819 -0.79497963 0.73193997 38
-0.92561984 -0.78054947 0.5775125 39
-0.90619504 -0.76389849 0.43831801 39
-0.87885886 -0.7408548 0.30970526 37
-0.8604852 -0.7251094 0.19396862 36
-1.2168744 -1.0239778 1.497631 37
-1.1495621 -0.96699297 1.177353 39
-1.1132606 -0.93612504 0.94035172 40
-0.93526524 -0.78645128 0.65235192 39
-0.92219025 -0.77518195 0.5084343 39
-0.8932187 -0.75056285 0.37210923 38
-0.87202549 -0.73249477 0.25105438 37
-0.85682392 -0.71947056 0.13880834 39
nan nan nan 0
-0.51260656 -0.42982319 4.2531257 5
-0.66052812 -0.55365992 4.167099 12
-0.97466332 -0.81668091 4.1122808 28
-1.3187687 -1.1046188 4.1122737 33
-1.5078628 -1.2625588 3.6713693 36
-1.4959141 -1.2521099 2.9377387 32
-1.3633236 -1.1407244 2.2048974 35
-0.19603832 -0.16385536 4.2573137 6
-0.35123351 -0.29346856 4.2255898 8
-0.81395614 -0.67984921 4.1206713 19
-1.1438808 -0.95507699 4.1065855 32
-1.4954152 -1.2481457 4.0913482 36
-1.6073331 -1.3410817 3.4942195 31
-1.4274945 -1.1906105 2.5361648 34
-1.3132356 -1.0949236 1.9318523 37
-1.2601343 -1.0566291 1.6958475 37
-1.1895709 -0.99710768 1.3339603 37
-1.1362585 -0.95208323 1.0565246 38
-0.9485634 -0.79452968 0.73425877 38
-0.93189335 -0.78028995 0.57938552 39
-0.91253459 -0.76380962 0.43972802 39
-0.8852064 -0.74093544 0.31063786 37
-0.86683041 -0.72529709 0.1944157 36
-1.2261719 -1.0245117 1.504282 37
-1.159135 -0.96815658 1.1832393 39
-1.1198305 -0.93499625 0.94288492 40
-0.94148862 -0.78609061 0.65445 39
-0.92851585 -0.77498412 0.51007783 40
-0.89956534 -0.75055426 0.37328154 38
-0.87838006 -0.73261827 0.25174505 37
-0.86316729 -0.71967459 0.13900986 39
nan nan nan 0
-0.51470089 -0.42852834 4.2580643 4
-0.66245675 -0.55135089 4.167099 13
-0.97750813 -0.81327373 4.1122808 28
-1.3226165 -1.1000087 4.1122737 33
-1.5141023 -1.2588187 3.6757586 37
-1.5089325 -1.2540753 2.9542706 32
-1.3746933 -1.1421033 2.2164099 35
-0.19683121 -0.16335441 4.2623048 6
-0.35266602 -0.29258114 4.2305613 7
-0.81632423 -0.6770038 4.1206713 21
-1.1472077 -0.95107824 4.1065855 32
-1.499763 -1.2429181 4.0913482 36
-1.620038 -1.3421184 3.5112834 31
-1.4386042 -1.1913863 2.548135 35
-1.3248836 -1.0968183 1.9428777 37
-1.2720371 -1.0590694 1.7063613 37
-1.1990278 -0.99792928 1.3402373 37
-1.1460038 -0.95345986 1.0620075 38
-0.95473683 -0.79404634 0.73657757 39
-0.93817616 -0.77999592 0.58125854 38
-0.91888446 -0.76368576 0.44113806 39
-0.89156526 -0.74098074 0.3115705 37
-0.8731873 -0.72544926 0.19486278 36
-1.2354877 -1.0249934 1.510933 38
-1.16873 -0.96926516 1.1891258 38
-1.1297247 -0.93658417 0.94795126 40
-0.94772083 -0.78569603 0.65654802 39
-0.93485117 -0.77475142 0.51172131 39
-0.90592283 -0.75051051 0.37445384 38
-0.88474596 -0.73270625 0.25243574 37
-0.8656742 -0.71665716 0.13900986 39
nan nan nan 0
-0.51559478 -0.4262341 4.2531257 4
-0.66437733 -0.54903513 4.167099 14
-0.98034108 -0.80985659 4.1122808 29
-1.3264483 -1.0953853 4.1122737 34
-1.5184872 -1.253526 3.6757586 36
-1.5241529 -1.2577556 2.9749353 32
-1.3860892 -1.1434168 2.2279224 35
-0.19762303 -0.16284996 4.2672968 5
-0.35409662 -0.29168725 4.2355328 6
-0.81868255 -0.67415023 4.1206713 22
-1.1505207 -0.94706792 4.1065855 33
-1.5040926 -1.2376753 4.0913482 37
-1.6347837 -1.3447392 3.5326128 31
-1.4520639 -1.1940126 2.564095 35
-1.3339419 -1.0964924 1.950228 37
-1.2812235 -1.0591675 1.7133703 37
-1.2085046 -0.99869674 1.3465142 37
-1.1557724 -0.95477998 1.0674905 38
-0.96091843 -0.79352951 0.73889637 38
-0.94446826 -0.77966774 0.58313155 38
-0.92524451 -0.76352686 0.4425481 39
-0.89793509 -0.74099064 0.3125031 37
-0.87955588 -0.72556585 0.19530986 36
-1.2477038 -1.0277964 1.5209095 37
-1.1783468 -0.97031844 1.1950121 38
-1.1396437 -0.93811435 0.95301759 40
-0.95396179 -0.78526759 0.65864611 39
-0.94119632 -0.77448398 0.51336485 39
-0.91229087 -0.75043148 0.37562618 39
-0.89112318 -0.73275864 0.25312641 37
-0.8720299 -0.71680343 0.13921139 39
nan nan nan 0
-0.5164789 -0.42393878 4.2481861 5
-0.66550267 -0.54606676 4.1622038 15
-0.98316205 -0.80642968 4.1122808 29
-1.3317746 -1.0919871 4.1168766 34
-1.5247059 -1.2497362 3.6801476 37
-1.5372406 -1.2595618 2.991467 32
-1.397511 -1.1446645 2.2394347 35
-0.19841371 -0.16234194 4.2722883 4
-0.35552526 -0.29078689 4.2405047 6
-0.82200384 -0.67208397 4.1255107 22
-1.1538196 -0.94304609 4.1065855 33
-1.5084035 -1.2324177 4.0913482 37
-1.6495675 -1.3472732 3.5539424 31
-1.4632251 -1.1946537 2.5760651 35
-1.3456407 -1.0982604 1.9612535 37
-1.2931827 -1.0614766 1.7238841 36
-1.2180012 -0.99941009 1.3527911 38
-1.1655642 -0.95604336 1.0729734 38
-0.97053355 -0.79578793 0.74353397 39
-0.95435494 -0.78224379 0.58687764 38
-0.93161464 -0.76333278 0.44395813 38
-0.90811557 -0.74407846 0.31436834 37
-0.88593584 -0.72564673 0.19575694 36
-1.2570641 -1.0281627 1.5275606 38
-1.1848558 -0.96875781 1.1979551 38
-1.1495869 -0.93958664 0.95808399 39
-0.96372515 -0.78767711 0.66284221 39
-0.94755077 -0.77418154 0.51500833 39
-0.9186694 -0.7503171 0.37679848 39
-0.89751148 -0.73277545 0.25381708 37
-0.87839717 -0.71691412 0.13941292 39
nan nan nan 0
-0.51735324 -0.42164242 4.243247 5
-0.66740471 -0.54374039 4.1622038 16
-0.98597097 -0.80299294 4.1122808 30
-1.3355782 -1.0873318 4.1168766 35
-1.5290592 -1.2444062 3.6801476 37
-1.5503596 -1.2612916 3.0079987 32
-1.4089581 -1.1458461 2.2509475 35
-0.19920325 -0.1618304 4.2772803 4
-0.35695192 -0.28988016 4.2454758 5
-0.82434481 -0.66921049 4.1255107 24
-1.1571044 -0.93901277 4.1065855 34
-1.5126964 -1.2271447 4.0913482 37
-1.6643888 -1.3497206 3.5752723 31
-1.4767493 -1.197129 2.592025 35
-1.3573678 -1.0999596 1.972279 37
-1.3024089 -1.0614622 1.7308931 37
-1.2275176 -1.0000694 1.3590679 38
-1.1753787 -0.95725006 1.0784564 38
-0.97674078 -0.79519206 0.74585277 39
-0.9606753 -0.78183401 0.58875066 38
-0.93799466 -0.76310354 0.44536817 38
-0.91451776 -0.74400395 0.31530097 38
-0.88846338 -0.7225498 0.19575694 36
-1.2664423 -1.028476 1.5342115 37
-1.1945064 -0.96971107 1.2038414 38
-1.1562068 -0.93828446 0.96061713 39
-0.96999294 -0.7871682 0.6649403 39
-0.95391458 -0.77384418 0.51665181 39
-0.92883343 -0.75322884 0.37914312 39
-0.90391064 -0.73275644 0.25450778 37
-0.88477588 -0.71698892 0.13961446 39
nan nan nan 0
-0.51821786 -0.4193452 4.2383075 6
-0.6685071 -0.54076707 4.1573091 17
-0.98876792 -0.7995463 4.1122808 30
-1.3393655 -1.0826631 4.1168766 35
-1.5333935 -1.2390612 3.6801476 37
-1.5656981 -1.2647134 3.0286636 32
-1.4204305 -1.146962 2.26246 36
-0.19999161 -0.16131531 4.2822714 4
-0.35796162 -0.28863239 4.2454758 5
-0.82765448 -0.66711789 4.1303501 24
-1.1617186 -0.93605059 4.1112781 34
-1.518666 -1.2232224 4.095849 37
-1.6792469 -1.3520807 3.596602 32
-1.4903085 -1.1995243 2.6079853 35
-1.3691231 -1.1015905 1.9833045 37
-1.314423 -1.0636394 1.7414067 37
-1.2370534 -1.0006742 1.3653449 38
-1.1819644 -0.95577049 1.0811979 38
-0.98640054 -0.79734725 0.75049037 39
-0.96700436 -0.78138953 0.59062368 38
-0.94438446 -0.76283902 0.44677818 39
-0.92093056 -0.74389386 0.31623358 36
-0.89485466 -0.72257274 0.19620402 36
-1.2787446 -1.03108 1.5441881 38
-1.2041781 -0.97060877 1.2097278 38
-1.1661886 -0.9396522 0.96568352 39
-0.97626883 -0.78662503 0.66703832 39
-0.96028763 -0.77347189 0.51829535 39
-0.93524301 -0.75303048 0.38031545 39
-0.9103207 -0.73270178 0.25519845 37
-0.89116555 -0.71702796 0.13981599 39
nan nan nan 0
-0.51846713 -0.41656038 4.2284293 6
-0.66959673 -0.53779268 4.1524134 17
-0.99271679 -0.79702437 4.1170526 31
-1.3431365 -1.0779812 4.1168766 35
-1.5377092 -1.2337011 3.6801476 37
-1.5788844 -1.2662829 3.0451953 32
-1.4319278 -1.1480116 2.2739725 35
-0.20055351 -0.1606162 4.2822714 4
-0.35938308 -0.28771427 4.2504473 4
-0.82997811 -0.66422474 4.1303501 25
-1.164979 -0.93198973 4.1112781 34
-1.5229266 -1.2179139 4.095849 37
-1.694142 -1.3543535 3.6179318 32
-1.5039023 -1.2018393 2.6239452 34
-1.3809065 -1.1031528 1.99433 37
-1.3236879 -1.063512 1.7484157 37
-1.2466084 -1.0012248 1.3716217 38
-1.1918145 -0.95687443 1.0866808 38
-1.0064515 -0.8077628 0.76208436 40
-0.97334194 -0.78091031 0.59249675 38
-0.95078367 -0.76253909 0.44818822 39
-0.92735374 -0.74374801 0.31716621 36
-0.90125692 -0.72255975 0.1966511 36
-1.2881653 -1.0312772 1.5508391 38
-1.2138705 -0.97145069 1.2156141 38
-1.1728276 -0.9382686 0.96821666 39
-0.98255271 -0.78604764 0.6691364 39
-0.96666956 -0.77306443 0.51993883 39
-0.94166255 -0.75279635 0.38148779 39
-0.91674125 -0.73261118 0.25588912 37
-0.89756644 -0.71703112 0.14001751 39
nan nan nan 0
-0.51931059 -0.41426352 4.2234898 7
-0.67146993 -0.53545207 4.1524134 18
-0.99549282 -0.79355431 4.1170526 31
-1.3468912 -1.0732862 4.1168766 35
-1.5420064 -1.228326 3.6801476 38
-1.5943016 -1.2695284 3.0658603 33
-1.4434497 -1.1489948 2.285485 35
-0.20088699 -0.1597355 4.2772803 3
-0.36038518 -0.28645802 4.2504473 4
-0.83327562 -0.66210544 4.1351895 26
-1.1682252 -0.92791748 4.1112781 35
-1.5271685 -1.2125903 4.095849 37
-1.7070302 -1.354917 3.6349955 35
-1.5175303 -1.204074 2.6399055 35
-1.392717 -1.1046457 2.0053556 38
-1.3357559 -1.0655568 1.7589295 37
-1.2561821 -1.0017207 1.3778987 38
-1.2016869 -0.95792127 1.0921637 38
-1.0612308 -0.84565437 0.79686636 40
-0.97968799 -0.7803964 0.59436977 38
-0.95719224 -0.76220381 0.44959825 39
-0.93378693 -0.74356639 0.31809881 38
-0.9076699 -0.72251081 0.19709818 36
-1.3005258 -1.0337441 1.5608156 38
-1.2235833 -0.97223657 1.2215004 38
-1.1828468 -0.93953139 0.97328311 39
-0.98884445 -0.78543591 0.67123443 39
-0.97306037 -0.77262175 0.52158237 39
-0.94809157 -0.75252652 0.38266009 39
-0.92317235 -0.73248476 0.25657982 38
-0.90006381 -0.71389359 0.14001751 39
nan nan nan 0
-0.52014434 -0.41196582 4.2185507 8
-0.67253655 -0.53247285 4.1475182 19
-0.9982568 -0.79007459 4.1170526 31
-1.3506294 -1.0685781 4.1168766 36
-1.5462847 -1.2229359 3.6801476 38
-1.6075534 -1.2709365 3.082392 33
-1.4575106 -1.1518989 2.3008349 36
-0.20121676 -0.15885442 4.2722883 3
-0.36180139 -0.28552854 4.2554188 4
-0.83558178 -0.65919268 4.1351895 27
-1.1728122 -0.92490268 4.1159711 35
-1.531392 -1.2072523 4.095849 37
-1.7199428 -1.3554071 3.6520593 36
-1.5311922 -1.2062283 2.6558657 35
-1.4045548 -1.1060699 2.016381 38
-1.347854 -1.0675303 1.769443 37
-1.2657745 -1.0021619 1.3841757 37
-1.2115808 -0.9589107 1.0976466 38
-1.0989163 -0.86943012 0.82005435 40
-0.98967862 -0.78272361 0.59811586 38
-0.96361011 -0.76183313 0.45100829 39
-0.94023025 -0.7433489 0.31903145 38
-0.91409355 -0.72242588 0.19754526 36
-1.3099884 -1.0338244 1.5674665 38
-1.2333163 -0.97296655 1.2273867 38
-1.1928889 -0.94073552 0.97834945 39
-0.99870735 -0.78760022 0.67543054 39
-0.98316813 -0.77506739 0.52486938 39
-0.9545303 -0.75222099 0.38383242 39
-0.93350351 -0.73538673 0.25796115 38
-0.90647537 -0.7138384 0.14021905 39
nan nan nan 0
-0.5209685 -0.40966743 4.2136116 10
-0.67439115 -0.53012204 4.1475182 19
-1.0010086 -0.78658527 4.1170526 32
-1.3543513 -1.063857 4.1168766 36
-1.5505441 -1.217531 3.6801476 37
-1.6230476 -1.2740048 3.1030567 34
-1.4690872 -1.15274 2.3123474 36
-0.20086119 -0.15743871 4.2523217 3
-0.36279583 -0.28426388 4.2554188 4
-0.83787769 -0.65627193 4.1351895 28
-1.1760335 -0.92080307 4.1159711 35
-1.537311 -1.2032412 4.1003504 37
-1.7287718 -1.3526094 3.6605909 38
-1.5448873 -1.2083017 2.6718256 35
-1.4164193 -1.1074247 2.0274065 37
-1.3571788 -1.0672276 1.7764521 36
-1.275385 -1.0025483 1.3904526 38
-1.2182084 -0.95725936 1.1003881 38
-1.1681325 -0.91758031 0.86411154 39
-0.99605089 -0.78212732 0.59998888 38
-0.97003686 -0.76142669 0.45241833 39
-0.94668329 -0.74309534 0.31996405 38
-0.92052752 -0.72230488 0.19799234 36
-1.3224064 -1.036154 1.5774431 38
-1.2430693 -0.97364032 1.233273 38
-1.2029538 -0.94188094 0.98341578 39
-1.005024 -0.78690714 0.67752856 39
-0.98958629 -0.77454132 0.52651286 39
-0.96480656 -0.75487489 0.38617703 39
-0.93996549 -0.73517448 0.25865185 38
-0.91289741 -0.71374702 0.14042059 39
nan nan nan 0
-0.52178288 -0.40736827 4.208672 10
-0.67623746 -0.52776474 4.1475182 20
-1.0037482 -0.78308624 4.1170526 32
-1.3580565 -1.059123 4.1168766 36
-1.5566733 -1.2135836 3.6845365 37
-1.6363631 -1.2752508 3.1195884 34
-1.4806877 -1.1535145 2.3238599 36
-0.20277651 -0.15780038 4.2822714 2
-0.36378589 -0.28299573 4.2554188 4
-0.84115565 -0.65411478 4.140029 28
-1.180603 -0.91775143 4.1206636 36
-1.5415018 -1.1978675 4.1003504 38
-1.7355424 -1.3481666 3.6648569 39
-1.5586156 -1.2102939 2.6877859 35
-1.4283105 -1.1087101 2.0384321 38
-1.369329 -1.0690677 1.7869658 36
-1.2880822 -1.0052745 1.3998679 38
-1.2281361 -0.95814514 1.105871 38
-1.1818078 -0.92166984 0.87106794 39
-1.0024312 -0.78149599 0.60186189 39
-0.97647268 -0.76098478 0.45382836 39
-0.9531461 -0.7428059 0.32089669 38
-0.92697173 -0.7221477 0.19843942 36
-1.3319092 -1.0361167 1.584094 37
-1.2528419 -0.97425783 1.2391593 38
-1.2096376 -0.94032174 0.98594898 39
-1.0113479 -0.7861796 0.67962664 39
-0.99601257 -0.77397972 0.5281564 40
-0.97127426 -0.75448424 0.38734937 39
-0.9464373 -0.73492616 0.25934252 38
-0.9193297 -0.71361941 0.14062211 39
nan nan nan 0
-0.52258754 -0.4050684 4.203733 10
-0.67807561 -0.52540094 4.1475182 22
-1.0076557 -0.78049177 4.1218243 33
-1.3617454 -1.054376 4.1168766 36
-1.562794 -1.2096083 3.6889257 35
-1.6519328 -1.278141 3.1402533 34
-1.4948468 -1.1561828 2.33921 36
-0.20446837 -0.15797412 4.30723 2
-0.36434963 -0.28139836 4.2504473 4
-0.8434338 -0.6511746 4.140029 29
-1.1837994 -0.91362482 4.1206636 36
-1.5456738 -1.1924795 4.1003504 38
-1.742303 -1.3436928 3.6691229 40
-1.5723764 -1.2122051 2.7037458 35
-1.4402275 -1.1099257 2.0494576 38
-1.3815082 -1.0708356 1.7974794 37
-1.2977369 -1.0055401 1.4061449 37
-1.234779 -0.95641285 1.1086124 38
-1.1920229 -0.92296284 0.87570554 39
-1.0088191 -0.78082967 0.60373497 38
-0.98671103 -0.76344258 0.45664841 39
-0.95961833 -0.74248034 0.32182932 38
-0.93342608 -0.72195435 0.19888648 36
-1.3443829 -1.038308 1.5940706 37
-1.2626338 -0.97481883 1.2450457 38
-1.2197379 -0.94136119 0.99101532 39
-1.0212719 -0.78819042 0.68382275 39
-1.002447 -0.77338278 0.52979988 39
-0.9777509 -0.75405765 0.38852167 39
-0.95291877 -0.73464155 0.26003322 38
-0.92577225 -0.71345562 0.14082363 39
nan nan nan 0
-0.52338248 -0.40276784 4.1987934 12
-0.67990547 -0.52303094 4.1475182 22
-1.010374 -0.77696973 4.1218243 33
-1.3654175 -1.0496162 4.1168766 36
-1.5765021 -1.2114425 3.7108712 33
-1.6653106 -1.2792239 3.156785 34
-1.5065001 -1.156814 2.3507223 36
-0.20639294 -0.15831366 4.3371801 2
-0.36532968 -0.28012481 4.2504473 4
-0.84570169 -0.64822656 4.140029 29
-1.1869814 -0.90948701 4.1206636 36
-1.549827 -1.1870767 4.1003504 38
-1.7490534 -1.3391882 3.6733885 40
-1.5861695 -1.2140348 2.7197061 35
-1.4521706 -1.1110718 2.060483 38
-1.3937166 -1.0725316 1.8079931 37
-1.3104943 -1.0081239 1.4155602 37
-1.2447393 -0.95719486 1.1140954 38
-1.2022616 -0.92419583 0.88034314 39
-1.0152144 -0.78012824 0.60560799 38
-0.99317414 -0.76291603 0.45805845 39
-0.96609974 -0.7421186 0.32276195 38
-0.93989033 -0.72172469 0.19933358 36
-1.353925 -1.0381527 1.6007215 37
-1.272445 -0.97532344 1.250932 38
-1.2298602 -0.94234157 0.99608165 39
-1.0276196 -0.78738105 0.68592077 39
-1.0126383 -0.77562165 0.5330869 39
-0.98423636 -0.75359493 0.38969401 39
-0.95940983 -0.73432064 0.26072389 38
-0.93222481 -0.71325547 0.14102517 39
nan nan nan 0
-0.52416784 -0.40046677 4.1938543 14
-0.68172705 -0.52065432 4.1475182 23
-1.01308 -0.7734381 4.1218243 33
-1.3706262 -1.046029 4.121479 36
-1.5940502 -1.2161006 3.7415946 32
-1.680954 -1.2819353 3.1774499 34
-1.520725 -1.1593213 2.3660727 36
-0.20740366 -0.15794207 4.3471632 2
-0.36588115 -0.27852499 4.2454758 4
-0.84795922 -0.64527059 4.140029 30
-1.1901487 -0.90533811 4.1206636 36
-1.555694 -1.1829774 4.1048517 38
-1.7537172 -1.3330749 3.6733885 40
-1.5999943 -1.2157829 2.735666 35
-1.4668387 -1.1141986 2.0751836 38
-1.4059534 -1.0741553 1.8185068 37
-1.320192 -1.0082681 1.4218372 37
-1.2547202 -0.95791882 1.1195784 37
-1.2125233 -0.92536855 0.88498074 39
-1.025303 -0.78220344 0.60935402 38
-0.99964559 -0.76235342 0.45946848 39
-0.97259045 -0.7417205 0.32369456 38
-0.94636422 -0.72145867 0.19978064 36
-1.3664534 -1.0402051 1.6106981 38
-1.2822748 -0.97577125 1.2568183 38
-1.2365729 -0.94065267 0.99861485 39
-1.0339738 -0.78653693 0.68801886 39
-1.0190984 -0.77494049 0.53473043 40
-0.9907304 -0.75309616 0.39086631 39
-0.96591008 -0.73396313 0.26141456 38
-0.93868721 -0.71301901 0.14122671 39
nan nan nan 0
-0.52494341 -0.39816508 4.1889153 15
-0.68354028 -0.51827157 4.1475182 25
-1.0169632 -0.7707988 4.1265965 33
-1.3742692 -1.0412382 4.121479 37
-1.6097407 -1.219205 3.7679293 31
-1.6966361 -1.2845528 3.1981144 34
-1.5324298 -1.1598088 2.3775849 36
-0.20726286 -0.15669483 4.3321881 2
-0.36642587 -0.27692473 4.2405047 5
-0.85120952 -0.6430645 4.1448684 30
-1.1946789 -0.90221822 4.1253567 36
-1.559814 -1.1775397 4.1048517 38
-1.75836 -1.3269451 3.6733885 40
-1.6138507 -1.2174493 2.751626 35
-1.4788395 -1.1151952 2.0862093 38
-1.4182186 -1.0757064 1.8290204 37
-1.3330081 -1.0107086 1.4312525 37
-1.2647212 -0.95858479 1.1250613 37
-1.2192768 -0.92380565 0.88729954 39
-1.0317227 -0.78141868 0.6112271 39
-1.0099498 -0.76465064 0.46228853 39
-0.97909003 -0.74128616 0.32462719 39
-0.95284778 -0.72115618 0.20022774 36
-1.3760337 -1.0399314 1.617349 37
-1.2921236 -0.97616243 1.2627047 38
-1.2467289 -0.94152623 1.0036812 39
-1.0439566 -0.7883932 0.69221491 39
-1.0255661 -0.77422369 0.53637397 40
-1.0011128 -0.75548905 0.39321095 39
-0.9724195 -0.73356938 0.26210526 38
-0.94515932 -0.71274608 0.14142823 39
nan nan nan 0
-0.52508867 -0.39539546 4.1790366 16
-0.68615884 -0.51649475 4.1524134 25
-1.0196477 -0.76724422 4.1265965 33
-1.3778954 -1.0364348 4.121479 37
-1.6273863 -1.2236538 3.7986526 30
-1.7146063 -1.2887673 3.2229121 34
-1.546719 -1.1621541 2.392935 36
-0.20780857 -0.15597039 4.3321881 2
-0.36696392 -0.27532411 4.2355328 5
-0.85344899 -0.64008921 4.1448684 31
-1.1978209 -0.89804256 4.1253567 36
-1.5639147 -1.1720878 4.1048517 38
-1.7650684 -1.3223629 3.6776545 40
-1.6277381 -1.2190336 2.7675862 36
-1.490865 -1.1161214 2.0972347 38
-1.4305117 -1.0771853 1.839534 37
-1.3427476 -1.010731 1.4375293 37
-1.2780831 -0.96170658 1.1332856 37
-1.2295742 -0.92486954 0.89193714 38
-1.0381495 -0.78059864 0.61310011 39
-1.0164473 -0.7640028 0.46369857 39
-0.98559821 -0.74081546 0.32555979 39
-0.96332198 -0.72380865 0.2011219 36
-1.3886151 -1.0418441 1.6273257 37
-1.3019902 -0.9764964 1.268591 38
-1.256906 -0.94234043 1.0087476 39
-1.0503336 -0.78746688 0.69431299 39
-1.0358198 -0.77630305 0.53966099 40
-1.0076339 -0.75490427 0.39438325 39
-0.9789381 -0.73313904 0.26279593 38
-0.95164084 -0.71243662 0.14162976 39
nan nan nan 0
-0.52584338 -0.39309493 4.1740975 16
-0.68795758 -0.5140965 4.1524134 26
-1.0223196 -0.76368034 4.1265965 34
-1.3815048 -1.0316187 4.121479 37
-1.6431633 -1.2265617 3.8249874 30
-1.7303712 -1.2911891 3.243577 34
-1.561043 -1.1644137 2.4082851 36
-0.20812023 -0.15507156 4.3271966 2
-0.36749524 -0.27372304 4.2305613 6
-0.8556782 -0.63710618 4.1448684 31
-1.2009484 -0.89385593 4.1253567 37
-1.5679965 -1.1666216 4.1048517 38
-1.7696736 -1.3161936 3.6776545 40
-1.6416559 -1.2205356 2.7835462 36
-1.5056356 -1.1189995 2.1119354 38
-1.4428319 -1.0785909 1.8500476 37
-1.3525032 -1.0106977 1.4438063 37
-1.2881321 -0.96224421 1.1387686 38
-1.239894 -0.92587292 0.8965748 38
-1.048298 -0.7825163 0.61684614 39
-1.0229527 -0.76331902 0.4651086 40
-0.99211508 -0.74030828 0.32649243 38
-0.96983445 -0.72341913 0.20156896 36
-1.3982323 -1.0414512 1.6339766 37
-1.3151171 -0.97918743 1.2774205 38
-1.2671039 -0.94309503 1.013814 39
-1.0603576 -0.78921533 0.6985091 39
-1.0423118 -0.77550137 0.54130447 40
-1.0141631 -0.75428319 0.39555559 39
-0.98546529 -0.7326721 0.26348662 38
-0.95813173 -0.71209049 0.14183129 39
nan nan nan 0
-0.52596438 -0.39033088 4.1642189 17
-0.68974787 -0.51169193 4.1524134 27
-1.0249791 -0.76010716 4.1265965 34
-1.3850975 -1.02679 4.121479 37
-1.65898 -1.2293741 3.8513215 30
-1.7461737 -1.2935162 3.2642415 34
-1.5754015 -1.1665872 2.423635 37
-0.20842817 -0.15417247 4.3222051 2
-0.36801982 -0.27212164 4.2255898 7
-0.8589077 -0.6348626 4.1497078 31
-1.2040612 -0.88965833 4.1253567 37
-1.5738103 -1.1624345 4.1093531 39
-1.7763553 -1.3115574 3.6819205 42
-1.6556041 -1.2219553 2.7995064 36
-1.5177165 -1.1197753 2.1229608 38
-1.4551796 -1.0799239 1.8605613 37
-1.362275 -1.0106086 1.4500831 37
-1.2982005 -0.96272343 1.1442515 38
-1.2502357 -0.92681539 0.90121239 39
-1.0547477 -0.78161246 0.61871922 37
-1.0333202 -0.76545441 0.46792868 40
-1.0025877 -0.74268866 0.32835767 39
-0.97635585 -0.72299296 0.20201604 36
-1.4108657 -1.0432239 1.6439531 37
-1.3250279 -0.97939599 1.2833068 38
-1.2773223 -0.94378966 1.0188802 39
-1.066756 -0.78820616 0.70060712 39
-1.0488108 -0.77466381 0.54294801 39
-1.0207001 -0.75362551 0.39672789 39
-0.99200112 -0.7321685 0.26417729 38
-0.96463168 -0.71170777 0.14203283 39
nan nan nan 0
-0.52607256 -0.38757083 4.1543407 18
-0.69152987 -0.50928116 4.1524134 27
-1.0276262 -0.75652462 4.1265965 35
-1.3902467 -1.0231069 4.1260815 37
-1.6748365 -1.232091 3.8776562 30
-1.7642804 -1.2974157 3.2890394 34
-1.5897943 -1.1686747 2.4389851 36
-0.20849968 -0.15310223 4.3122215 2
-0.36853781 -0.27051991 4.2206187 8
-0.8611185 -0.63186061 4.1497078 32
-1.2071593 -0.88544995 4.1253567 37
-1.5778586 -1.1569338 4.1093531 39
-1.7809225 -1.3053488 3.6819205 42
-1.6720126 -1.2250732 2.8194566 36
-1.5325562 -1.1224835 2.1376615 38
-1.4675539 -1.0811837 1.8710748 37
-1.3720626 -1.0104635 1.4563601 37
-1.311655 -0.96562296 1.152476 38
-1.2605988 -0.9276967 0.90584999 39
-1.0649382 -0.78342015 0.62246525 37
-1.0398505 -0.7646848 0.46933869 40
-1.0091314 -0.74209464 0.32929027 38
-0.98689854 -0.72547972 0.2029102 36
-1.4235284 -1.0449208 1.6539296 37
-1.338215 -0.98193848 1.2921362 38
-1.2875609 -0.94442445 1.0239466 39
-1.0768201 -0.78984636 0.70480323 39
-1.0591249 -0.77658254 0.54623502 39
-1.0272448 -0.75293154 0.39790022 39
-0.99854541 -0.73162806 0.26486799 38
-0.97114062 -0.71128827 0.14223436 39
nan nan nan 0
-0.52679509 -0.38527346 4.1494012 19
-0.69330329 -0.50686413 4.1524134 28
-1.0302606 -0.75293297 4.1265965 35
-1.3938096 -1.0182478 4.1260815 38
-1.688798 -1.2332996 3.8996017 30
-1.7801626 -1.2995454 3.3097041 34
-1.6042207 -1.170676 2.4543352 36
-0.20856623 -0.15203337 4.302238 2
-0.36947984 -0.26923186 4.2206187 8
-0.86331886 -0.62885088 4.1497078 32
-1.2102427 -0.88123077 4.1253567 37
-1.5818872 -1.151419 4.1093531 39
-1.7854682 -1.2991242 3.6819205 42
-1.686026 -1.2263191 2.8354166 36
-1.544691 -1.1231078 2.1486869 38
-1.4799546 -1.08237 1.8815886 37
-1.3818659 -1.0102623 1.4626372 37
-1.3217696 -0.96597296 1.1579589 38
-1.2709833 -0.92851704 0.91048759 39
-1.0714103 -0.7824322 0.62433827 39
-1.0463878 -0.76387882 0.47074872 39
-1.0156832 -0.74146396 0.3302229 39
-0.99344778 -0.72496605 0.20335728 36
-1.4362199 -1.046542 1.663906 38
-1.3481687 -0.9820208 1.2980225 38
-1.2978194 -0.94499922 1.029013 39
-1.0832396 -0.78875422 0.70690131 39
-1.0656471 -0.77565986 0.5478785 39
-1.0337971 -0.7522009 0.39907253 39
-1.005098 -0.73105085 0.26555866 39
-0.98169911 -0.71376991 0.14263742 39
nan nan nan 0
-0.52750802 -0.38297573 4.1444616 19
-0.69506842 -0.50444096 4.1524134 28
-1.0328826 -0.74933207 4.1265965 35
-1.3973554 -1.0133762 4.1260815 38
-1.7047271 -1.2358313 3.925936 31
-1.7960812 -1.3015798 3.330369 34
-1.6186802 -1.1725906 2.4696853 36
-0.20862791 -0.15096594 4.2922549 3
-0.36998546 -0.26762807 4.2156467 9
-0.86550868 -0.62583345 4.1497078 32
-1.2133116 -0.87700081 4.1253567 37
-1.5858968 -1.1458901 4.1093531 39
-1.7921065 -1.2944109 3.6861866 42
-1.7025117 -1.2292458 2.8553669 36
-1.5595977 -1.1256453 2.1633875 38
-1.4923816 -1.083483 1.8921022 37
-1.3948343 -1.0122912 1.4720525 37
-1.3319026 -0.96626413 1.1634418 37
-1.2778028 -0.9266755 0.91280639 39
-1.0778884 -0.78140849 0.62621135 38
-1.0568167 -0.76585144 0.47356883 39
-1.0262204 -0.74367899 0.33208814 39
-1.0000052 -0.7244153 0.20380437 36
-1.4489402 -1.0480874 1.6738826 38
-1.3581394 -0.98204571 1.3039091 38
-1.3080976 -0.94551373 1.0340793 39
-1.0933429 -0.79028559 0.71109736 39
-1.0760033 -0.77746654 0.55116552 40
-1.0403569 -0.75143373 0.40024483 39
-1.0116587 -0.73043686 0.26624933 39
-0.98823565 -0.71326268 0.14283895 38
nan nan nan 0
-0.52884156 -0.3811321 4.1444616 20
-0.69682503 -0.50201166 4.1524134 29
-1.0354919 -0.74572206 4.1265965 35
-1.4008842 -1.0084925 4.1260815 38
-1.7206942 -1.2382668 3.9522705 32
-1.8120353 -1.3035188 3.3510334 34
-1.6331726 -1.1744183 2.4850352 36
-0.20868465 -0.14989993 4.2822714 3
-0.37048438 -0.26602402 4.2106752 10
-0.86768794 -0.62280858 4.1497078 33
-1.2149633 -0.87175429 4.1206636 37
-1.5898871 -1.1403474 4.1093531 39
-1.7966138 -1.2881476 3.6861866 44
-1.7165887 -1.230317 2.8713269 36
-1.5717851 -1.1261178 2.1744132 37
-1.5048339 -1.0845224 1.9026158 37
-1.4046756 -1.0119665 1.4783293 37
-1.3420535 -0.96649611 1.1689247 38
-1.2882198 -0.92738581 0.91744393 39
-1.088135 -0.78305697 0.62995738 39
-1.0633777 -0.76495904 0.47497886 39
-1.0327978 -0.74296087 0.33302075 38
-1.0065711 -0.72382766 0.20425144 36
-1.4616885 -1.0495564 1.683859 38
-1.37141 -0.98436987 1.3127384 38
-1.3183951 -0.94596815 1.0391457 39
-1.0997823 -0.78911018 0.7131955 39
-1.0825479 -0.77645802 0.55280906 40
-1.0508739 -0.75346214 0.40258947 39
-1.0182271 -0.72978586 0.26694003 38
-0.99478054 -0.71271831 0.14304048 39
nan nan nan 0
-0.53016877 -0.37928376 4.1444616 21
-0.69940132 -0.50016856 4.1573091 30
-1.0380887 -0.74210298 4.1265965 35
-1.4043959 -1.0035962 4.1260815 38
-1.7366987 -1.2406056 3.9786048 32
-1.8303151 -1.3069978 3.3758314 34
-1.6476972 -1.1761591 2.5003853 36
-0.20873654 -0.14883538 4.2722883 3
-0.37141073 -0.26472917 4.2106752 11
-0.86985672 -0.61977595 4.1497078 33
-1.217999 -0.86750799 4.1206636 37
-1.593858 -1.1347908 4.1093531 39
-1.8010994 -1.2818682 3.6861866 44
-1.7331492 -1.2330514 2.8912768 36
-1.5867573 -1.1284837 2.1891136 38
-1.5173118 -1.0854877 1.9131296 37
-1.4176975 -1.0138495 1.4877448 37
-1.3522223 -0.96666914 1.1744076 38
-1.2986574 -0.92803437 0.92208153 39
-1.0946341 -0.78194863 0.63183039 39
-1.0738492 -0.76681799 0.47779891 40
-1.0393826 -0.74220592 0.33395338 38
-1.017198 -0.72609627 0.2051456 36
-1.4744648 -1.0509492 1.6938356 37
-1.3814216 -0.98426765 1.3186247 38
-1.3287117 -0.94636208 1.0442121 39
-1.1099236 -0.79053235 0.71739161 39
-1.0929451 -0.77815217 0.55609608 40
-1.0574576 -0.75260764 0.4037618 39
-1.0288385 -0.73196858 0.26832137 39
-1.0054051 -0.71503258 0.14344354 39
nan nan nan 0
-0.53212297 -0.37788069 4.1494012 22
-0.70114297 -0.49772412 4.1573091 30
-1.0406729 -0.73847479 4.1265965 35
-1.4078907 -0.99868792 4.1260815 38
-1.7527411 -1.242848 4.0049396 33
-1.8463451 -1.3087372 3.3964961 34
-1.6622537 -1.1778128 2.5157351 36
-0.20901915 -0.14793906 4.2672968 3
-0.37233254 -0.2634311 4.2106752 11
-0.87098861 -0.61600995 4.1448684 33
-1.2210196 -0.86325103 4.1206636 38
-1.5978094 -1.1292201 4.1093531 39
-1.805563 -1.2755735 3.6861866 44
-1.7497497 -1.2356852 2.9112272 36
-1.601765 -1.1307586 2.2038143 37
-1.5327225 -1.0884442 1.9271477 37
-1.4307495 -1.0156538 1.4971601 37
-1.3624086 -0.96678269 1.1798905 38
-1.3091152 -0.92862147 0.92671913 39
-1.1049203 -0.78348595 0.63557649 39
-1.080433 -0.76583892 0.47920895 40
-1.0499822 -0.74425465 0.33581862 39
-1.0237896 -0.72542024 0.20559269 36
-1.4842203 -1.050109 1.7004865 38
-1.391449 -0.98410749 1.3245111 38
-1.3390468 -0.94669533 1.0492785 39
-1.1163821 -0.78927314 0.71948963 39
-1.0995111 -0.77705771 0.55773956 40
-1.068018 -0.75452113 0.40610641 40
-1.0354323 -0.73122948 0.26901206 39
-1.0119762 -0.71439993 0.14364508 39
nan nan nan 0
-0.5334388 -0.37602094 4.1494012 23
-0.70287609 -0.49527365 4.1573091 30
-1.0432442 -0.73483771 4.1265965 36
-1.4113681 -0.99376744 4.1260815 38
-1.7668613 -1.2436148 4.026885 34
-1.864711 -1.3120002 3.421294 35
-1.6794636 -1.1812229 2.5349226 37
-0.20929803 -0.14704257 4.2623048 4
-0.37281361 -0.26182345 4.2057037 12
-0.87313354 -0.61296594 4.1448684 34
-1.2240256 -0.85898364 4.1206636 38
-1.6017414 -1.123636 4.1093531 39
-1.8100046 -1.2692631 3.6861866 44
-1.7663893 -1.2382181 2.9311771 36
-1.6168077 -1.1329424 2.2185149 38
-1.545257 -1.0892514 1.9376613 37
-1.4438316 -1.0173795 1.5065755 38
-1.3726121 -0.96683705 1.1853735 37
-1.3195927 -0.92914689 0.93135673 38
-1.1114393 -0.78229249 0.6374495 39
-1.087023 -0.76482326 0.48061898 39
-1.0565913 -0.74341166 0.33675122 39
-1.0303891 -0.72470713 0.20603976 36
-1.4970434 -1.0513593 1.7104629 38
-1.401492 -0.98388934 1.3303974 38
-1.3494006 -0.94696796 1.0543448 39
-1.1228455 -0.78797859 0.72158772 39
-1.1099484 -0.77863878 0.56102657 40
-1.0746249 -0.75357914 0.40727875 40
-1.0460886 -0.73329574 0.2703934 39
-1.0226467 -0.71659708 0.14404814 39
nan nan nan 0
-0.53474808 -0.37415662 4.1494012 24
-0.70543492 -0.49340063 4.1622038 30
-1.0470263 -0.73204702 4.1313686 36
-1.4148284 -0.98883474 4.1260815 38
-1.7829713 -1.2456695 4.0532193 36
-1.8808144 -1.3135391 3.4419582 35
-1.6940893 -1.1826924 2.5502727 36
-0.20957327 -0.14614597 4.2573137 4
-0.37372524 -0.26052049 4.2057037 13
-0.87526798 -0.60991436 4.1448684 34
-1.2270166 -0.85470575 4.1206636 38
-1.6056539 -1.1180379 4.1093531 39
-1.814424 -1.2629373 3.6861866 46
-1.7855415 -1.2423708 2.9551175 36
-1.6291021 -1.1330992 2.2295406 38
-1.5607377 -1.0920287 1.9516795 36
-1.4569426 -1.0190259 1.5159907 37
-1.3828324 -0.96683186 1.1908565 38
-1.3300899 -0.92961031 0.93599433 39
-1.1217639 -0.78371835 0.6411956 39
-1.093619 -0.76377088 0.48202902 39
-1.0672343 -0.7453441 0.33861646 39
-1.0369958 -0.72395664 0.20648685 36
-1.5098931 -1.0525328 1.7204396 38
-1.4148668 -0.98592389 1.339227 38
-1.3633096 -0.94964373 1.0619444 39
-1.1330373 -0.78924245 0.72578377 39
-1.1165348 -0.77745795 0.56267011 39
-1.0852276 -0.75537711 0.40962341 40
-1.0527067 -0.73246813 0.2710841 39
-1.0292432 -0.71587569 0.14424966 39
nan nan nan 0
-0.53605092 -0.37228769 4.1494012 25
-0.7071529 -0.49093524 4.1622038 31
-1.0495752 -0.72838771 4.1313686 36
-1.4182714 -0.98389006 4.1260815 38
-1.7932129 -1.2435327 4.0663867 37
-1.8992645 -1.3165851 3.4667561 35
-1.71138 -1.1858997 2.5694602 36
-0.20960738 -0.14508493 4.2473302 5
-0.37419406 -0.25891107 4.2007327 14
-0.87842542 -0.60757041 4.1497078 34
-1.2299925 -0.85041744 4.1206636 38
-1.6113374 -1.113664 4.1138539 40
-1.8209671 -1.2580783 3.6904523 44
-1.8022642 -1.2446922 2.9750674 36
-1.6442071 -1.1351099 2.2442412 38
-1.5733275 -1.092677 1.9621931 36
-1.470083 -1.0205933 1.5254062 37
-1.3965045 -0.96915084 1.1990808 38
-1.3406061 -0.93001169 0.94063193 38
-1.1283023 -0.78243971 0.64306861 39
-1.1041633 -0.7654146 0.48484907 40
-1.0738667 -0.74441278 0.33954909 39
-1.0436099 -0.72316885 0.20693392 36
-1.5227695 -1.0536295 1.7304161 37
-1.4249483 -0.98557776 1.3451133 37
-1.3737078 -0.94978219 1.0670108 39
-1.1395185 -0.78786367 0.72788185 39
-1.1270112 -0.77892554 0.56595713 40
-1.0918567 -0.75434715 0.41079572 40
-1.0634066 -0.73441732 0.27246544 39
-1.0358472 -0.71511698 0.1444512 39
nan nan nan 0
-0.53734714 -0.37041429 4.1494012 25
-0.7088623 -0.48846382 4.1622038 31
-1.0521114 -0.72471952 4.1313686 36
-1.4233062 -0.98004127 4.1306839 39
-1.8034611 -1.2413393 4.0795541 39
-1.9177585 -1.319518 3.491554 34
-1.7260727 -1.1871843 2.5848103 36
-0.21011256 -0.14435238 4.2473302 6
-0.37465614 -0.25730154 4.1957607 15
-0.88054079 -0.60450041 4.1497078 35
-1.2329534 -0.84611887 4.1206636 38
-1.6152152 -1.1080326 4.1138539 42
-1.8253475 -1.2517143 3.6904523 44
-1.8215103 -1.2486157 2.9990077 36
-1.6593455 -1.1370288 2.2589419 38
-1.5888771 -1.0952747 1.9762113 36
-1.4800465 -1.0198725 1.5316831 37
-1.4067661 -0.96901417 1.2045637 37
-1.3511413 -0.93035096 0.94526953 39
-1.1386644 -0.7837534 0.6468147 39
-1.1107804 -0.7642749 0.4862591 40
-1.0845523 -0.74622869 0.34141433 39
-1.050231 -0.72234368 0.207381 36
-1.5356715 -1.0546488 1.7403926 37
-1.4383768 -0.98746061 1.3539426 38
-1.3841233 -0.94985974 1.072077 39
-1.1497459 -0.78901738 0.73207796 39
-1.1336173 -0.77765793 0.56760061 40
-1.0984919 -0.75328016 0.41196802 40
-1.0700483 -0.73350066 0.27315614 39
-1.0424583 -0.71432084 0.14465272 39
nan nan nan 0
-0.53927821 -0.36897507 4.1543407 26
-0.710563 -0.48598644 4.1622038 32
-1.0546347 -0.72104263 4.1313686 36
-1.4267185 -0.97506696 4.1306839 39
-1.8097609 -1.2363876 4.0839434 39
-1.9386194 -1.3239245 3.5204844 35
-1.7434423 -1.1901877 2.6039979 36
-0.21037664 -0.14345543 4.2423382 7
-0.37511152 -0.25569195 4.1907892 16
-0.88264555 -0.60142308 4.1497078 35
-1.2373258 -0.84278131 4.1253567 38
-1.6208725 -1.103613 4.1183553 42
-1.8297056 -1.2453351 3.6904523 48
-1.8383144 -1.2507249 3.0189579 36
-1.6745176 -1.1388558 2.2736425 38
-1.6015205 -1.0957632 1.986725 36
