# .PCD v0.7 - Point Cloud Data file format
VERSION 0.7
FIELDS x y z intensity
SIZE 4 4 4 4
TYPE F F F F
COUNT 1 1 1 1
WIDTH 1361
HEIGHT 1
VIEWPOINT 0 0 0 1 0 0 0
POINTS 1361
DATA ascii
0.089295372 -0.65356857 4.1938543 3
0.11514685 -0.84387809 4.1181474 4
0.16746221 -1.2288836 4.0120687 17
0.18508574 -1.359984 3.2930243 14
0.16132486 -1.1869427 2.2624753 28
0.14732549 -1.0853622 1.6813223 32
0.1401906 -1.034153 1.3261089 36
nan nan nan 0
0.061095852 -0.4530656 4.2206187 4
0.14003594 -1.0398282 4.077116 10
0.17310004 -1.2870417 3.5856881 28
0.16917397 -1.2595143 2.6914704 23
0.15209372 -1.1338503 1.9414195 32
0.14198594 -1.0599012 1.4907784 34
0.13501796 -1.009225 1.1821188 38
0.13571927 -0.99335325 1.0650294 37
0.13091736 -0.95945567 0.8631919 39
0.10982618 -0.80593461 0.61789 38
0.10712231 -0.78711963 0.50237882 38
0.10562698 -0.77714723 0.40519345 38
0.1045727 -0.77039802 0.3184652 37
0.10241113 -0.75447351 0.23602825 33
0.1009863 -0.74495208 0.1604377 36
0.13120493 -0.97297019 0.95557451 39
0.10986109 -0.81576663 0.6829021 39
0.10711621 -0.79643553 0.55784172 39
0.10541145 -0.78376019 0.45303696 39
0.1044262 -0.77746177 0.36216196 38
0.10147501 -0.75649065 0.27480689 36
0.10124018 -0.755741 0.19856268 34
0.099999279 -0.74746919 0.12409657 40
nan nan nan 0
0.087218434 -0.65541673 4.203733 3
0.11220045 -0.84427494 4.1181474 5
0.16297521 -1.2279809 4.007297 18
0.17982399 -1.3567483 3.2838192 15
0.15686639 -1.1851243 2.258086 28
0.14353597 -1.0858699 1.6813223 32
0.1361604 -1.0314583 1.3222713 36
nan nan nan 0
0.059652768 -0.45433313 4.2305613 4
0.13640542 -1.0403106 4.077116 11
0.16860637 -1.2876381 3.5856881 28
0.16477643 -1.2600973 2.6914704 24
0.14813493 -1.1343745 1.9414195 32
0.13828534 -1.0603906 1.4907784 34
0.13149428 -1.00969 1.1821188 38
0.13225098 -0.99382097 1.0650294 38
0.12756744 -0.95990688 0.8631919 38
0.10701228 -0.80631304 0.61789 38
0.1043741 -0.78748876 0.50237882 39
0.10291357 -0.77751124 0.40519345 38
0.10188287 -0.77075833 0.3184652 36
0.099776901 -0.75482637 0.23602825 33
0.098385327 -0.74530011 0.1604377 36
0.12780784 -0.97342223 0.95557451 39
0.10701288 -0.81614518 0.6829021 39
0.10377578 -0.7925303 0.55530858 39
0.10267497 -0.78412342 0.45303696 39
0.10171171 -0.77782154 0.36216196 38
0.098833747 -0.75684029 0.27480689 36
0.097961172 -0.75117934 0.19787201 34
0.097389519 -0.7478137 0.12409657 40
nan nan nan 0
0.085229479 -0.65802878 4.2185507 3
0.10912209 -0.84365159 4.1132517 6
0.15849654 -1.2270619 4.0025249 18
0.17483704 -1.3554302 3.2792168 15
0.1527286 -1.1856647 2.258086 29
0.1397447 -1.0863643 1.6813223 32
0.13255911 -1.0319273 1.3222713 36
nan nan nan 0
0.058134042 -0.45506734 4.2355328 3
0.13293228 -1.0420272 4.0819559 12
0.16432872 -1.2899305 3.5903809 28
0.16037685 -1.2606647 2.6914704 24
0.1438456 -1.1322973 1.9371535 32
0.13420381 -1.0578774 1.4867885 34
0.12796901 -1.0101429 1.1821188 38
0.1287811 -0.99427646 1.0650294 38
0.12421596 -0.96034628 0.8631919 38
0.10419708 -0.80668169 0.61789 38
0.10162461 -0.78784835 0.50237882 39
0.10019894 -0.77786571 0.40519345 37
0.098579779 -0.76635146 0.31705517 37
0.09714146 -0.75517005 0.23602825 33
0.095783152 -0.74563897 0.1604377 36
0.12440919 -0.97386241 0.95557451 39
0.10365184 -0.81250423 0.67995894 39
0.10100871 -0.79288769 0.55530858 39
0.099937253 -0.784477 0.45303696 39
0.098400064 -0.77348745 0.36051846 38
0.096191272 -0.75718063 0.27480689 36
0.095338464 -0.75151664 0.19787201 34
0.09415067 -0.74319273 0.12389504 42
nan nan nan 0
0.083126254 -0.65986419 4.2284293 2
0.10604944 -0.8430171 4.1083565 6
0.15421233 -1.2276077 4.0025249 19
0.16986147 -1.3540937 3.2746143 16
0.14858893 -1.1861905 2.258086 29
0.13595173 -1.0868455 1.6813223 33
0.1289562 -1.0323837 1.3222713 36
nan nan nan 0
0.056676604 -0.45632547 4.2454758 3
0.12929411 -1.042485 4.0819559 13
0.15982503 -1.2904962 3.5903809 29
0.15570813 -1.2590563 2.686969 26
0.13989228 -1.1327925 1.9371535 32
0.13051032 -1.0583394 1.4867885 34
0.12444218 -1.0105835 1.1821188 38
0.12530965 -0.99472004 1.0650294 38
0.12086296 -0.960774 0.8631919 39
0.10138059 -0.80704051 0.61789 37
0.098873883 -0.78819829 0.50237882 39
0.097483069 -0.7782107 0.40519345 37
0.095904119 -0.76669085 0.31705517 37
0.094504833 -0.75550449 0.23602825 33
0.093179792 -0.74596882 0.1604377 36
0.12100901 -0.97429079 0.95557451 39
0.10081504 -0.81286108 0.67995894 39
0.098240405 -0.79323548 0.55530858 39
0.097198308 -0.78482115 0.45303696 39
0.095699474 -0.77382618 0.36051846 38
0.094143368 -0.76233578 0.27597919 36
0.092714593 -0.75184494 0.19787201 34
0.091555871 -0.7435168 0.12389504 42
nan nan nan 0
0.081200078 -0.66323531 4.2481861 2
0.10310612 -0.84338212 4.1083565 7
0.14992625 -1.2281384 4.0025249 19
0.16466096 -1.3507998 3.2654092 16
0.14415805 -1.1843246 2.2536969 29
0.13181758 -1.0845199 1.6771894 33
0.12535173 -1.0328276 1.3222713 37
nan nan nan 0
0.055274952 -0.45810822 4.2603908 2
0.12550403 -1.0416819 4.077116 14
0.15531938 -1.2910463 3.5903809 29
0.15131226 -1.2595922 2.686969 26
0.13562666 -1.1306845 1.9328877 32
0.12645687 -1.0557966 1.4827985 34
0.12091383 -1.0110117 1.1821188 38
0.12183665 -0.9951514 1.0650294 39
0.1175085 -0.96119004 0.8631919 39
0.098562881 -0.80738944 0.61789 37
0.096121959 -0.78853863 0.50237882 38
0.094766013 -0.77854627 0.40519345 38
0.093227282 -0.767021 0.31705517 37
0.091867059 -0.75582981 0.23602825 33
0.090575308 -0.74628949 0.1604377 36
0.11760736 -0.97470725 0.95557451 39
0.097977005 -0.81320804 0.67995894 39
0.095470898 -0.79357356 0.55530858 39
0.094458178 -0.78515559 0.45303696 39
0.092997737 -0.7741555 0.36051846 38
0.091481745 -0.76265973 0.27597919 36
0.090089612 -0.75216401 0.19787201 33
0.088959955 -0.74383187 0.12389504 42
nan nan nan 0
0.079251394 -0.66660094 4.2679434 2
0.1000415 -0.84272581 4.1034613 8
0.14563832 -1.2286544 4.0025249 19
0.15971516 -1.3494263 3.2608066 17
0.14002311 -1.1848205 2.2536969 30
0.12803109 -1.0849735 1.6771894 33
0.12174572 -1.0332588 1.3222713 36
nan nan nan 0
0.053737525 -0.45882776 4.2653618 2
0.12172112 -1.0408653 4.0722771 14
0.15081182 -1.2915806 3.5903809 29
0.14691454 -1.2601126 2.686969 27
0.13167898 -1.131151 1.9328877 32
0.12277069 -1.0562316 1.4827985 34
0.11699316 -1.00806 1.1784436 38
0.1183622 -0.99557054 1.0650294 39
0.1141526 -0.9615944 0.8631919 40
0.095743962 -0.80772859 0.61789 38
0.093368866 -0.78886926 0.50237882 37
0.092047796 -0.77887231 0.40519345 38
0.090549305 -0.76734173 0.31705517 37
0.089228153 -0.75614589 0.23602825 33
0.08796972 -0.74660116 0.1604377 36
0.11376996 -0.97140336 0.95224899 39
0.094668299 -0.80953044 0.67701572 39
0.092700221 -0.79390198 0.55530858 39
0.091716893 -0.78548056 0.45303696 39
0.090294868 -0.77447546 0.36051846 38
0.088819005 -0.76297444 0.27597919 36
0.086891763 -0.7475549 0.19718133 34
0.086362951 -0.74413788 0.12389504 44
nan nan nan 0
0.077547282 -0.67227662 4.3025179 2
0.09709923 -0.84306985 4.1034613 8
0.14134862 -1.2291552 4.0025249 22
0.15478097 -1.3480347 3.2562041 16
0.13588648 -1.1853021 2.2536969 30
0.12392302 -1.082618 1.6730564 33
0.11813824 -1.0336776 1.3222713 37
nan nan nan 0
0.052857496 -0.46536839 4.3250203 2
0.11794544 -1.0400349 4.0674376 15
0.14630245 -1.2920991 3.5903809 30
0.14227051 -1.2584548 2.6824682 27
0.12772974 -1.1316037 1.9328877 33
0.119083 -1.0566537 1.4827985 34
0.11347367 -1.0084623 1.1784436 39
0.11447762 -0.99243498 1.0615247 39
0.11079532 -0.96198702 0.8631919 40
0.09292388 -0.8080579 0.61789 38
0.090614624 -0.78919041 0.50237882 37
0.089328468 -0.77918887 0.40519345 38
0.087870233 -0.76765311 0.31705517 37
0.086588167 -0.75645274 0.23602825 33
0.08536306 -0.74690366 0.1604377 36
0.11037843 -0.97179461 0.95224899 39
0.091841936 -0.80985594 0.67701572 39
0.089928418 -0.79422069 0.55530858 39
0.088974491 -0.78579587 0.45303696 38
0.087590896 -0.77478594 0.36051846 38
0.08561001 -0.75844985 0.27480689 36
0.08428178 -0.74785364 0.19718133 34
0.083764903 -0.74443483 0.12389504 44
nan nan nan 0
0.075113796 -0.67177117 4.2975788 2
0.094155774 -0.8434037 4.1034613 8
0.13705721 -1.2296412 4.0025249 23
0.1500745 -1.3485668 3.2562041 16
0.13148367 -1.1833888 2.2493079 30
0.12014323 -1.0830439 1.6730564 33
0.11417646 -1.0308977 1.3184338 37
nan nan nan 0
0.051116116 -0.46449032 4.3150768 2
0.11417703 -1.0391906 4.0625982 16
0.1417913 -1.2926019 3.5903809 30
0.13787679 -1.2589437 2.6824682 27
0.12349546 -1.1294501 1.9286215 33
0.11539387 -1.057063 1.4827985 34
0.10995279 -1.0088522 1.1784436 38
0.11101268 -0.99282855 1.0615247 39
0.10700484 -0.95849967 0.86005342 40
0.089639463 -0.80422163 0.61514854 38
0.087859288 -0.78950191 0.50237882 38
0.086608045 -0.77949595 0.40519345 36
0.085190088 -0.76795518 0.31705517 37
0.083947137 -0.7567504 0.23602825 33
0.082755364 -0.74719703 0.1604377 36
0.10698555 -0.97217393 0.95224899 40
0.089014456 -0.8101716 0.67701572 39
0.087155528 -0.7945298 0.55530858 39
0.086231016 -0.78610176 0.45303696 39
0.084885851 -0.775087 0.36051846 38
0.082962006 -0.75874406 0.27480689 36
0.081670769 -0.74814332 0.19718133 34
0.081165828 -0.74472266 0.12389504 40
nan nan nan 0
0.072433837 -0.66893929 4.277822 2
0.09121117 -0.84372723 4.1034613 8
0.1329243 -1.2315962 4.007297 23
0.14515691 -1.3471398 3.2516015 17
0.12735209 -1.1838406 2.2493079 29
0.11636196 -1.0834568 1.6730564 34
0.11057726 -1.0312901 1.3184338 37
nan nan nan 0
nan nan nan 0
0.11028305 -1.037083 4.0529189 16
0.13727841 -1.293089 3.5903809 30
0.13325198 -1.2572525 2.6779668 28
0.11955218 -1.1298742 1.9286215 33
0.11138679 -1.0544629 1.4788084 35
0.10643057 -1.0092299 1.1784436 39
0.1075464 -0.99320996 1.0615247 39
0.1036584 -0.95886731 0.86005342 39
0.086831659 -0.80452967 0.61514854 38
0.085102871 -0.7898038 0.50237882 38
0.083886564 -0.77979356 0.40519345 36
0.082508907 -0.76824784 0.31705517 37
0.081305064 -0.75703877 0.23602825 33
0.080146648 -0.74748141 0.1604377 36
0.10359139 -0.97254145 0.95224899 40
0.086185887 -0.81047744 0.67701572 39
0.084381573 -0.79482919 0.55530858 39
0.083486483 -0.78639793 0.45303696 39
0.08217977 -0.77537853 0.36051846 37
0.080312982 -0.75902903 0.27480689 36
0.079058766 -0.74842381 0.19718133 34
0.078565769 -0.74500144 0.12389504 42
nan nan nan 0
0.069936454 -0.66764253 4.2679434 2
0.088159554 -0.84302777 4.0985656 9
0.12862441 -1.2320527 4.007297 24
0.14045362 -1.3476385 3.2516015 18
0.12297109 -1.1818959 2.2449188 29
0.11257928 -1.0838563 1.6730564 34
0.10697672 -1.0316697 1.3184338 37
nan nan nan 0
nan nan nan 0
0.10653374 -1.0362114 4.04808 16
0.13276383 -1.2935603 3.5903809 30
0.12886254 -1.25771 2.6779668 28
0.11560746 -1.1302848 1.9286215 33
0.10770535 -1.0548451 1.4788084 35
0.10290705 -1.0095953 1.1784436 39
0.10407878 -0.99357939 1.0615247 39
0.10031069 -0.95922333 0.86005342 39
0.084022798 -0.80482787 0.61514854 38
0.081886224 -0.78569013 0.50006002 38
0.081164077 -0.78008163 0.40519345 37
0.079826713 -0.7685312 0.31705517 36
0.078662008 -0.75731802 0.23602825 33
0.077023327 -0.7428031 0.15999061 36
0.10019595 -0.97289711 0.95224899 40
0.083356261 -0.81077331 0.67701572 39
0.081606582 -0.79511893 0.55530858 39
0.080277555 -0.78216976 0.45093891 39
0.079472691 -0.77566063 0.36051846 38
0.077662989 -0.75930476 0.27480689 36
0.076445796 -0.74869519 0.19718133 34
0.075964749 -0.74527121 0.12389504 42
nan nan nan 0
0.067370772 -0.6655634 4.2531257 2
0.085216306 -0.84333032 4.0985656 9
0.12447279 -1.2339793 4.0120687 25
0.1355529 -1.3461766 3.246999 18
0.11884475 -1.182318 2.2449188 30
0.10879523 -1.0842427 1.6730564 33
0.10337487 -1.0320369 1.3184338 37
nan nan nan 0
nan nan nan 0
0.10291605 -1.036577 4.04808 17
0.12824766 -1.2940159 3.5903809 31
0.12447153 -1.2581521 2.6779668 29
0.11166133 -1.1306814 1.9286215 33
0.10402259 -1.0552146 1.4788084 35
0.099382274 -1.0099484 1.1784436 39
0.10060991 -0.99393654 1.0615247 39
0.096961766 -0.95956761 0.86005342 40
0.081212915 -0.80511624 0.61514854 38
0.079143159 -0.78597116 0.50006002 39
0.078440584 -0.78036016 0.40519345 37
0.077143557 -0.76880515 0.31705517 36
0.076017998 -0.75758797 0.23602825 33
0.074429996 -0.7430675 0.15999061 36
0.096799299 -0.97324097 0.95224899 40
0.080525629 -0.8110593 0.67701572 39
0.0788306 -0.79539889 0.55530858 39
0.077546783 -0.78244519 0.45093891 39
0.076764658 -0.77593338 0.36051846 38
0.075012051 -0.75957119 0.27480689 36
0.073831894 -0.74895746 0.19718133 34
0.073362805 -0.74553186 0.12389504 44
nan nan nan 0
0.064896002 -0.66424781 4.243247 3
0.082272016 -0.84362268 4.0985656 10
0.12016463 -1.2344064 4.0120687 26
0.13085304 -1.3466417 3.246999 18
0.11448576 -1.1803417 2.2405298 30
0.10500985 -1.0846158 1.6730564 33
0.099771753 -1.0323914 1.3184338 37
nan nan nan 0
nan nan nan 0
0.099177256 -1.0356786 4.0432405 17
0.12372993 -1.2944558 3.5903809 31
0.120079 -1.2585789 2.6779668 29
0.10771383 -1.1310643 1.9286215 33
0.10033857 -1.0555714 1.4788084 35
0.095856294 -1.0102891 1.1784436 39
0.097139806 -0.99428165 1.0615247 39
0.093611665 -0.95990026 0.86005342 40
0.078402035 -0.80539483 0.61514854 38
0.076399125 -0.7862426 0.50006002 39
0.075716145 -0.78062916 0.40519345 38
0.074459456 -0.76906973 0.31705517 37
0.073373057 -0.75784868 0.23602825 32
0.071835749 -0.74332273 0.15999061 36
0.093401469 -0.97357291 0.95224899 40
0.077694014 -0.8113355 0.67701572 39
0.076053664 -0.79566926 0.55530858 39
0.074815072 -0.78271115 0.45093891 39
0.074055672 -0.7761966 0.36051846 38
0.072360195 -0.75982845 0.27480689 36
0.071217097 -0.74921066 0.19718133 34
0.070759974 -0.74578333 0.12389504 42
nan nan nan 0
0.062431253 -0.66292328 4.2333684 3
0.079326712 -0.84390473 4.0985656 10
0.11585503 -1.2348182 4.0120687 26
0.12615159 -1.3470902 3.246999 18
0.1103649 -1.1807342 2.2405298 31
0.10122321 -1.0849758 1.6730564 34
0.09616743 -1.0327334 1.3184338 36
nan nan nan 0
nan nan nan 0
0.09556146 -1.0360185 4.0432405 17
0.11921069 -1.2948797 3.5903809 31
0.11568501 -1.2589904 2.6779668 29
0.10352685 -1.1288364 1.9243557 33
0.096653335 -1.0559152 1.4788084 35
0.092329137 -1.0106175 1.1784436 39
0.093334161 -0.99106419 1.0580202 39
0.090260409 -0.96022111 0.86005342 40
0.075590216 -0.80566359 0.61514854 38
0.07365416 -0.78650457 0.50006002 39
0.072990775 -0.78088874 0.40519345 38
0.071774453 -0.76932502 0.31705517 37
0.070727229 -0.75810021 0.23602825 32
0.06924063 -0.74356896 0.15999061 36
0.090002492 -0.97389305 0.95224899 40
0.074861445 -0.8116017 0.67701572 39
0.072880611 -0.79163724 0.55277538 39
0.072082445 -0.78296751 0.45093891 39
0.071345791 -0.77645034 0.36051846 38
0.069707461 -0.7600764 0.27480689 36
0.068601429 -0.74945474 0.19718133 34
0.068156265 -0.74602574 0.12389504 42
nan nan nan 0
0.059976533 -0.66158938 4.2234898 3
0.076380454 -0.84417647 4.0985656 11
0.111544 -1.2352151 4.0120687 26
0.12144861 -1.3475223 3.246999 19
0.10624269 -1.1811122 2.2405298 31
0.097435318 -1.0853225 1.6730564 34
0.09256193 -1.0330628 1.3184338 36
nan nan nan 0
nan nan nan 0
0.091944493 -1.0363457 4.0432405 18
0.11468998 -1.295288 3.5903809 32
0.11109798 -1.2572181 2.6734657 29
0.099585839 -1.1291908 1.9243557 33
0.092966907 -1.0562462 1.4788084 36
0.088800862 -1.0109336 1.1784436 39
0.089874133 -0.99138391 1.0580202 39
0.086908065 -0.96053034 0.86005342 40
0.072777458 -0.80592251 0.61514854 38
0.070908301 -0.78675681 0.50006002 39
0.069849186 -0.7765215 0.4033204 38
0.069088571 -0.76957077 0.31705517 37
0.068080537 -0.75834244 0.23602825 33
0.066644669 -0.74380612 0.15999061 36
0.08660242 -0.97420132 0.95224899 40
0.072027974 -0.81185806 0.67701572 39
0.070116833 -0.79188681 0.55277538 39
0.069348939 -0.78321433 0.45093891 39
0.068635039 -0.77669466 0.36051846 38
0.067053869 -0.76031512 0.27480689 36
0.065984927 -0.74968964 0.19718133 33
0.065551735 -0.74625909 0.12389504 42
nan nan nan 0
0.05759934 -0.66102064 4.2185507 4
0.073433265 -0.84443796 4.0985656 11
0.1072316 -1.2355969 4.0120687 26
0.11674414 -1.3479381 3.246999 19
0.10191296 -1.1790899 2.2361407 31
0.093646243 -1.085656 1.6730564 34
0.088955306 -1.0333797 1.3184338 37
nan nan nan 0
nan nan nan 0
0.088326417 -1.0366603 4.0432405 18
0.11016788 -1.2956804 3.5903809 32
0.10670879 -1.2575982 2.6734657 30
0.095643625 -1.1295316 1.9243557 33
0.089279361 -1.0565642 1.4788084 36
0.0852715 -1.0112375 1.1784436 39
0.086413004 -0.99169159 1.0580202 39
0.083554663 -0.96082783 0.86005342 40
0.069963813 -0.80617166 0.61514854 38
0.068161577 -0.78699952 0.50006002 39
0.067138195 -0.77676058 0.4033204 37
0.066401847 -0.76980728 0.31705517 36
0.065010861 -0.75368142 0.23509565 33
0.064047895 -0.74403429 0.15999061 36
0.083201289 -0.97449762 0.95224899 40
0.069193624 -0.81210452 0.67701572 39
0.067352198 -0.79212677 0.55277538 39
0.066999093 -0.78797388 0.45303696 39
0.065923452 -0.7769295 0.36051846 38
0.064399473 -0.76054454 0.27480689 36
0.06336762 -0.74991542 0.19718133 34
0.062526621 -0.74150515 0.12369351 42
nan nan nan 0
0.055162098 -0.65966916 4.208672 4
0.070569851 -0.84570384 4.1034613 12
0.10291792 -1.2359638 4.0120687 28
0.11187646 -1.3463905 3.2423966 20
0.097796544 -1.1794385 2.2361407 31
0.08962398 -1.0831718 1.6689235 34
0.0853476 -1.0336839 1.3184338 37
nan nan nan 0
nan nan nan 0
0.08470726 -1.0369624 4.0432405 18
0.10578465 -1.2977772 3.5950737 32
0.10214183 -1.2557931 2.6689644 30
0.091489255 -1.127259 1.9200897 34
0.085590713 -1.0568695 1.4788084 36
0.081741102 -1.011529 1.1784436 39
0.08295083 -0.99198723 1.0580202 38
0.08020024 -0.96111363 0.86005342 39
0.067149334 -0.80641097 0.61514854 38
0.065047197 -0.7828182 0.49774119 38
0.064426385 -0.77699018 0.4033204 37
0.063318737 -0.76525366 0.31564513 37
0.062379625 -0.75390381 0.23509565 33
0.061450344 -0.74425328 0.15999061 36
0.07979916 -0.97478211 0.95224899 40
0.06602934 -0.80831259 0.67407256 39
0.064586759 -0.79235697 0.55277538 39
0.064248145 -0.78820288 0.45303696 39
0.063211061 -0.77715492 0.36051846 38
0.06174428 -0.76076466 0.27480689 36
0.060749538 -0.75013202 0.19718133 34
0.059937902 -0.74171889 0.12369351 40
nan nan nan 0
0.052797046 -0.65908313 4.203733 5
0.067617372 -0.84594506 4.1034613 12
0.098602973 -1.2363155 4.0120687 28
0.107176 -1.3467727 3.2423966 20
0.093678944 -1.1797725 2.2361407 32
0.08584246 -1.0834781 1.6689235 34
0.081486255 -1.0307803 1.3145963 38
nan nan nan 0
nan nan nan 0
0.081087075 -1.0372517 4.0432405 19
0.10125393 -1.2981385 3.5950737 33
0.097757667 -1.2561421 2.6689644 30
0.087553836 -1.1275715 1.9200897 34
0.081901036 -1.0571618 1.4788084 36
0.077948436 -1.008428 1.1747683 39
0.079487644 -0.99227071 1.0580202 38
0.076534703 -0.95750773 0.85691488 40
0.06433402 -0.80664045 0.61514854 38
0.062665664 -0.78745621 0.50006002 39
0.061713792 -0.77721035 0.4033204 37
0.060647119 -0.76546997 0.31564513 37
0.059747629 -0.75411689 0.23509565 33
0.058852039 -0.74446326 0.15999061 36
0.076396048 -0.97505474 0.95224899 40
0.063207403 -0.80853814 0.67407256 39
0.061820522 -0.79257762 0.55277538 39
0.061496418 -0.78842241 0.45303696 39
0.060497899 -0.77737081 0.36051846 38
0.059088342 -0.7609756 0.27480689 36
0.058130722 -0.75033945 0.19718133 34
0.057348453 -0.74192357 0.12369351 40
nan nan nan 0
0.05043675 -0.65848869 4.1987934 5
0.064664058 -0.84617591 4.1034613 13
0.094400302 -1.2381406 4.0168409 28
0.10232604 -1.3451906 3.2377942 20
0.089560188 -1.1800925 2.2361407 32
0.082059897 -1.0837712 1.6689235 35
0.077887654 -1.0310584 1.3145963 38
nan nan nan 0
nan nan nan 0
0.077465892 -1.0375284 4.0432405 19
0.096721962 -1.298484 3.5950737 33
0.093372323 -1.2564757 2.6689644 30
0.083617344 -1.1278702 1.9200897 34
0.078210346 -1.0574414 1.4788084 36
0.074427888 -1.0086939 1.1747683 40
0.076023489 -0.99254221 1.0580202 39
0.073191911 -0.95776904 0.85691488 39
0.061200041 -0.80269074 0.61240709 38
0.059916545 -0.78767014 0.50006002 39
0.059000447 -0.77742106 0.4033204 38
0.057974763 -0.76567698 0.31564513 37
0.05711491 -0.75432086 0.23509565 33
0.056253016 -0.74466413 0.15999061 36
0.072992004 -0.97531545 0.95224899 41
0.060384698 -0.80875385 0.67407256 39
0.059053533 -0.79278862 0.55277538 39
0.058743931 -0.78863227 0.45303696 39
0.057783999 -0.77757728 0.36051846 38
0.056431681 -0.76117718 0.27480689 36
0.055511195 -0.75053781 0.19718133 34
0.054758303 -0.74211919 0.12369351 40
nan nan nan 0
0.048081253 -0.65788579 4.1938543 6
0.061709955 -0.84639645 4.1034613 13
0.090077817 -1.2384626 4.0168409 28
0.097629838 -1.3455396 3.2377942 21
0.08544036 -1.1803979 2.2361407 32
0.078276329 -1.084051 1.6689235 35
0.074288115 -1.031324 1.3145963 38
nan nan nan 0
nan nan nan 0
0.07384377 -1.0377926 4.0432405 19
0.09218882 -1.2988137 3.5950737 33
0.08883208 -1.2546226 2.6644633 31
0.079496086 -1.1255536 1.9158239 34
0.074518718 -1.0577078 1.4788084 36
0.070906438 -1.0089476 1.1747683 40
0.072558403 -0.99280143 1.0580202 39
0.069848225 -0.95801866 0.85691488 39
0.058397759 -0.80289948 0.61240709 38
0.057166703 -0.78787446 0.50006002 39
0.056286383 -0.77762228 0.4033204 38
0.055301696 -0.76587474 0.31564513 37
0.054481488 -0.75451565 0.23509565 33
0.053653311 -0.744856 0.15999061 37
0.069587074 -0.9755643 0.95224899 41
0.057561249 -0.80895972 0.67407256 39
0.056285821 -0.79298991 0.55277538 39
0.055990733 -0.78883249 0.45303696 39
0.055069394 -0.77777421 0.36051846 38
0.053431891 -0.75652099 0.27363458 36
0.05289099 -0.750727 0.19718133 34
0.052167494 -0.74230587 0.12369351 40
nan nan nan 0
0.045730583 -0.65727448 4.1889153 6
0.058755107 -0.84660667 4.1034613 13
0.085754231 -1.2387694 4.0168409 28
0.092797853 -1.3439231 3.2331915 22
0.081319481 -1.1806889 2.2361407 32
0.074491814 -1.0843177 1.6689235 35
0.070687674 -1.031577 1.3145963 38
nan nan nan 0
nan nan nan 0
0.070220746 -1.038044 4.0432405 20
0.087654538 -1.2991276 3.5950737 33
0.084452093 -1.2549249 2.6644633 31
0.075566687 -1.1258243 1.9158239 34
0.070826165 -1.0579615 1.4788084 37
0.067384124 -1.009189 1.1747683 40
0.068844914 -0.98949099 1.0545157 39
0.066503696 -0.95825666 0.85691488 40
0.055594753 -0.80309838 0.61240709 38
0.054416161 -0.78806925 0.50006002 38
0.053253088 -0.77318901 0.40144739 38
0.052627962 -0.76606309 0.31564513 37
0.051847409 -0.7547012 0.23509565 33
0.05105295 -0.74503869 0.15999061 36
0.066181295 -0.97580129 0.95224899 41
0.054737106 -0.80915576 0.67407256 39
0.053517424 -0.79318154 0.55277538 39
0.05293132 -0.78449494 0.45093891 39
0.052354123 -0.77796173 0.36051846 38
0.050790809 -0.75670296 0.27363458 36
0.050270136 -0.750907 0.19718133 34
0.049576044 -0.74248344 0.12369351 40
nan nan nan 0
0.043384764 -0.65665483 4.1839757 7
0.055866487 -0.84782273 4.1083565 14
0.081429593 -1.2390612 4.0168409 28
0.088106118 -1.344239 3.2331915 21
0.077197619 -1.1809655 2.2361407 32
0.070706375 -1.0845711 1.6689235 35
0.067086369 -1.0318176 1.3145963 38
nan nan nan 0
nan nan nan 0
0.066596866 -1.0382828 4.0432405 20
0.083119214 -1.2994257 3.5950737 33
0.080071062 -1.2552122 2.6644633 31
0.071636364 -1.1260812 1.9158239 34
0.067132764 -1.0582023 1.4788084 37
0.063860983 -1.009418 1.1747683 40
0.06539052 -0.98972535 1.0545157 39
0.063158341 -0.95848304 0.85691488 40
0.052791081 -0.80328757 0.61240709 38
0.051664952 -0.78825438 0.50006002 38
0.050553832 -0.77337021 0.40144739 38
0.049953576 -0.76624215 0.31564513 37
0.04921269 -0.75487763 0.23509565 33
0.048451971 -0.74521244 0.15999061 36
0.062774718 -0.97602636 0.95224899 40
0.051912285 -0.80934185 0.67407256 39
0.050748382 -0.79336351 0.55277538 39
0.050192606 -0.78467488 0.45093891 39
0.049638208 -0.77813971 0.36051846 38
0.048149116 -0.75687563 0.27363458 36
0.047648679 -0.75107801 0.19718133 34
0.046983995 -0.74265194 0.12369351 40
nan nan nan 0
0.041043829 -0.65602678 4.1790366 7
0.052906692 -0.84801251 4.1083565 15
0.077103965 -1.2393379 4.0168409 28
0.08329235 -1.3425884 3.2285891 22
0.073074795 -1.1812278 2.2361407 32
0.066920087 -1.0848113 1.6689235 35
0.063484237 -1.0320455 1.3145963 38
nan nan nan 0
nan nan nan 0
0.062972181 -1.0385089 4.0432405 21
0.078582861 -1.2997079 3.5950737 33
0.075689077 -1.255484 2.6644633 31
0.067705169 -1.1263245 1.9158239 35
0.063438542 -1.0584302 1.4788084 37
0.060337074 -1.0096347 1.1747683 41
0.061935339 -0.98994756 1.0545157 39
0.059812229 -0.95869762 0.85691488 40
0.049986761 -0.80346692 0.61240709 38
0.048913114 -0.78842992 0.50006002 38
0.047853958 -0.77354199 0.40144739 38
0.047278591 -0.76641178 0.31564513 37
0.046577375 -0.75504482 0.23509565 33
0.045850396 -0.745377 0.15999061 36
0.059367362 -0.97623956 0.95224899 40
0.049086843 -0.8095181 0.67407256 39
0.047978718 -0.79353583 0.55277538 39
0.047179364 -0.78031504 0.44884086 39
0.046921689 -0.77830827 0.36051846 38
0.045506835 -0.75703907 0.27363458 36
0.045026634 -0.75123972 0.19718133 34
0.044391368 -0.74281144 0.12369351 40
nan nan nan 0
0.038707811 -0.65539038 4.1740975 7
0.049886398 -0.8471756 4.1034613 15
0.072777405 -1.2395996 4.0168409 29
0.078605331 -1.342871 3.2285891 22
0.068811566 -1.1790847 2.2317514 33
0.062969521 -1.082229 1.6647905 35
0.059881344 -1.0322608 1.3145963 38
nan nan nan 0
nan nan nan 0
0.059346724 -1.0387224 4.0432405 21
0.074045561 -1.2999742 3.5950737 33
0.071182735 -1.253567 2.6599619 31
0.063773155 -1.1265539 1.9158239 35
0.059573758 -1.0556366 1.4748185 37
0.056621995 -1.0064545 1.1710931 40
0.058479398 -0.99015772 1.0545157 39
0.056465384 -0.95890057 0.85691488 40
0.047181834 -0.80363661 0.61240709 38
0.046160683 -0.78859586 0.50006002 38
0.045153499 -0.77370429 0.40144739 38
0.044603024 -0.76657218 0.31564513 36
0.04394149 -0.75520277 0.23509565 33
0.043248266 -0.74553251 0.15999061 36
0.055959288 -0.97644079 0.95224899 40
0.046260796 -0.80968457 0.67407256 39
0.045208469 -0.79369843 0.55277538 39
0.044455267 -0.78047496 0.44884086 39
0.0442046 -0.7784673 0.36051846 37
0.042863999 -0.75719327 0.27363458 36
0.042404044 -0.75139236 0.19718133 34
0.0417982 -0.74296182 0.12369351 40
nan nan nan 0
0.036419835 -0.65552157 4.1740975 7
0.046928901 -0.84734452 4.1034613 15
0.068449944 -1.239846 4.0168409 29
0.073809996 -1.3411863 3.2239864 22
0.064695366 -1.1793177 2.2317514 33
0.059191454 -1.0824422 1.6647905 35
0.056277722 -1.0324634 1.3145963 38
nan nan nan 0
nan nan nan 0
0.055720545 -1.0389233 4.0432405 22
0.069599457 -1.301948 3.5997663 33
0.06680654 -1.2538079 2.6599619 31
0.059840355 -1.1267697 1.9158239 35
0.055888541 -1.0558381 1.4748185 37
0.053108472 -1.006646 1.1710931 40
0.055022746 -0.99035579 1.0545157 39
0.053117853 -0.95909178 0.85691488 41
0.044376332 -0.80379641 0.61240709 39
0.04340769 -0.7887522 0.50006002 39
0.04270643 -0.77848613 0.4033204 36
0.041926917 -0.76672322 0.31564513 37
0.041305076 -0.75535154 0.23509565 33
0.040645611 -0.7456789 0.15999061 36
0.052349914 -0.97290182 0.94892353 40
0.043434188 -0.8098411 0.67407256 39
0.042437665 -0.79385149 0.55277538 39
0.041730627 -0.7806254 0.44884086 39
0.041486975 -0.77861685 0.36051846 37
0.040220637 -0.75733835 0.27363458 36
0.039780941 -0.75153577 0.19718133 34
0.039204527 -0.74310327 0.12369351 40
nan nan nan 0
0.034131415 -0.65564466 4.1740975 7
0.043970834 -0.84750319 4.1034613 16
0.064121656 -1.2400773 4.0168409 29
0.06912794 -1.3414358 3.2239864 23
0.060578384 -1.1795363 2.2317514 32
0.055412669 -1.0826423 1.6647905 35
0.052673407 -1.0326537 1.3145963 38
nan nan nan 0
0.023452125 -0.46617189 4.3101053 2
0.052156631 -1.0403669 4.04808 22
0.065054387 -1.3021829 3.5997663 33
0.062429525 -1.2540333 2.6599619 31
0.055906836 -1.1269716 1.9158239 35
0.052202638 -1.0560269 1.4748185 37
0.049594294 -1.0068252 1.1710931 40
0.051565424 -0.99054182 1.0545157 39
0.049769677 -0.95927137 0.85691488 41
0.041570295 -0.80394638 0.61240709 39
0.040426187 -0.78447503 0.49774119 39
0.039988745 -0.7786305 0.4033204 36
0.039250299 -0.7668649 0.31564513 37
0.038668156 -0.75549114 0.23509565 33
0.03804246 -0.74581629 0.15999061 36
0.048953537 -0.97307867 0.94892353 40
0.040607054 -0.80998772 0.67407256 39
0.039666347 -0.79399478 0.55277538 39
0.039231937 -0.78529924 0.45093891 39
0.038768843 -0.77875698 0.36051846 38
0.037576791 -0.75747412 0.27363458 36
0.036912851 -0.74672401 0.19649065 34
0.036610372 -0.74323559 0.12369351 42
nan nan nan 0
0.031804897 -0.65498376 4.169158 7
0.040963016 -0.84663451 4.0985656 16
0.059792593 -1.2402936 4.0168409 30
0.064351298 -1.3397176 3.219384 23
0.056460667 -1.1797405 2.2317514 32
0.051633202 -1.082829 1.6647905 35
0.048916344 -1.0296295 1.3107588 38
nan nan nan 0
0.021799816 -0.46571845 4.3051343 2
0.048524756 -1.0405426 4.04808 22
0.060508527 -1.3024021 3.5997663 33
0.05805175 -1.2542436 2.6599619 31
0.051972628 -1.12716 1.9158239 35
0.048516098 -1.0562027 1.4748185 37
0.04607952 -1.0069922 1.1710931 40
0.048107475 -0.9907158 1.0545157 39
0.04623279 -0.95555151 0.85377645 40
0.038763743 -0.80408657 0.61240709 39
0.037687615 -0.7846114 0.49774119 39
0.037270576 -0.77876532 0.4033204 37
0.036573201 -0.76699722 0.31564513 36
0.036030766 -0.75562149 0.23509565 33
0.035438843 -0.7459445 0.15999061 36
0.04555656 -0.97324359 0.94892353 40
0.037779424 -0.81012458 0.67407256 39
0.036894549 -0.79412836 0.55277538 39
0.036490493 -0.78543139 0.45093891 39
0.036050238 -0.77888751 0.36051846 38
0.034932483 -0.75760067 0.27363458 36
0.034306075 -0.74684829 0.19649065 33
0.034015775 -0.74335885 0.12369351 40
nan nan nan 0
0.029518383 -0.65509081 4.169158 7
0.037961807 -0.84575516 4.0936708 16
0.055462793 -1.2404948 4.0168409 30
0.059674419 -1.3399341 3.219384 24
0.052342255 -1.1799304 2.2317514 33
0.047853108 -1.0830027 1.6647905 35
0.045321967 -1.029794 1.3107588 38
nan nan nan 0
0.020220151 -0.46685681 4.3150768 2
0.044892285 -1.0407057 4.04808 23
0.056036007 -1.3043295 3.6044593 33
0.053580213 -1.2522638 2.6554608 31
0.04803779 -1.1273345 1.9158239 35
0.044828966 -1.0563655 1.4748185 37
0.04256418 -1.0071468 1.1710931 40
0.044648938 -0.99087775 1.0545157 39
0.042897012 -0.95570707 0.85377645 40
0.035956718 -0.80421698 0.61240709 39
0.03494858 -0.78473818 0.49774119 39
0.034551948 -0.77889073 0.4033204 37
0.033895656 -0.76712024 0.31564513 36
0.033176094 -0.75083518 0.23416302 33
0.032834791 -0.74606359 0.15999061 36
0.042159028 -0.97339666 0.94892353 41
0.034951326 -0.81025153 0.67407256 39
0.034122303 -0.79425234 0.55277538 39
0.033748608 -0.78555399 0.45093891 39
0.033129331 -0.77429074 0.35887495 37
0.032287754 -0.75771797 0.27363458 36
0.031698879 -0.7469635 0.19649065 33
0.03142076 -0.74347305 0.12369351 40
nan nan nan 0
0.027231507 -0.65518981 4.169158 8
0.035009339 -0.84588253 4.0936708 16
0.051132325 -1.2406808 4.0168409 30
0.054996811 -1.3401341 3.219384 24
0.048125427 -1.1777129 2.2273624 33
0.044072431 -1.0831631 1.6647905 35
0.041727044 -1.029946 1.3107588 38
nan nan nan 0
0.018654013 -0.46852243 4.3299913 2
0.041259274 -1.040856 4.04808 23
0.0514827 -1.3045173 3.6044593 34
0.049208675 -1.2524432 2.6554608 31
0.044102363 -1.1274954 1.9158239 35
0.04114129 -1.0565156 1.4748185 37
0.039048322 -1.0072893 1.1710931 40
0.041189857 -0.99102753 1.0545157 39
0.039560709 -0.95585096 0.85377645 40
0.033149261 -0.80433762 0.61240709 39
0.032209117 -0.78485537 0.49774119 39
0.031643622 -0.77437449 0.40144739 37
0.031217702 -0.76723385 0.31564513 37
0.030554987 -0.7509464 0.23416302 32
0.030230347 -0.74617374 0.15999061 36
0.038760979 -0.97353792 0.94892353 42
0.032122809 -0.81036854 0.67407256 39
0.03117964 -0.79005915 0.55024219 39
0.031006303 -0.78566694 0.45093891 39
0.030426351 -0.77440166 0.35887495 37
0.029642625 -0.75782609 0.27363458 36
0.029091297 -0.7470696 0.19649065 33
0.028825363 -0.7435782 0.12369351 40
nan nan nan 0
0.024944304 -0.65528095 4.169158 8
0.03201789 -0.84498209 4.0887756 16
0.046801228 -1.2408516 4.0168409 30
0.050318539 -1.340318 3.219384 24
0.044014148 -1.1778737 2.2273624 33
0.04029122 -1.0833104 1.6647905 36
0.038131606 -1.0300853 1.3107588 38
nan nan nan 0
0.016979758 -0.46751928 4.3200483 2
0.037580349 -1.0397375 4.0432405 23
0.046928775 -1.3046889 3.6044593 33
0.044758651 -1.2504317 2.6509595 31
0.0401664 -1.1276424 1.9158239 35
0.037453111 -1.0566528 1.4748185 37
0.03553199 -1.0074195 1.1710931 41
0.037730273 -0.99116528 1.0545157 39
0.036223926 -0.95598328 0.85377645 40
0.030183798 -0.80027002 0.60966563 38
0.029469267 -0.78496295 0.49774119 39
0.028940357 -0.77448022 0.40144739 37
0.028539367 -0.76733822 0.31564513 37
0.027933512 -0.75104856 0.23416302 32
0.027625529 -0.74627471 0.15999061 36
0.035362467 -0.97366732 0.94892353 42
0.029293898 -0.81047577 0.67407256 39
0.028421629 -0.79016316 0.55024219 39
0.028100481 -0.7812348 0.44884086 39
0.027722998 -0.77450311 0.35887495 38
0.026997136 -0.75792491 0.27363458 36
0.026483357 -0.74716657 0.19649065 33
0.026229616 -0.74367428 0.12369351 40
nan nan nan 0
0.022629945 -0.65458739 4.1642189 8
0.029068157 -0.84508866 4.0887756 17
0.042469561 -1.2410076 4.0168409 30
0.045639649 -1.3404856 3.219384 24
0.039902333 -1.1780202 2.2273624 33
0.036509518 -1.0834445 1.6647905 36
0.034535702 -1.0302122 1.3107588 38
nan nan nan 0
0.015277757 -0.46544465 4.3001628 2
0.033950757 -1.0398623 4.0432405 23
0.042374272 -1.3048449 3.6044593 33
0.040393561 -1.2505803 2.6509595 31
0.036229949 -1.1277757 1.9158239 36
0.033764478 -1.056777 1.4748185 38
0.032015223 -1.0075374 1.1710931 40
0.034270231 -0.99129093 1.0545157 40
0.032886699 -0.95610386 0.85377645 40
0.02739015 -0.80037051 0.60966563 38
0.026729055 -0.78506106 0.49774119 39
0.026236741 -0.77457654 0.40144739 38
0.025860682 -0.76743311 0.31564513 37
0.025311692 -0.75114149 0.23416302 33
0.025020376 -0.74636662 0.15999061 36
0.031963516 -0.97378474 0.94892353 41
0.026464632 -0.8105731 0.67407256 39
0.025663272 -0.79025757 0.55024219 39
0.025373293 -0.78132814 0.44884086 39
0.02501931 -0.7745952 0.35887495 38
0.024351319 -0.7580145 0.27363458 36
0.023716958 -0.74230486 0.19579996 34
0.023633549 -0.7437613 0.12369351 40
nan nan nan 0
0.020344872 -0.65466237 4.1642189 8
0.02611807 -0.84518498 4.0887756 16
0.038137376 -1.2411482 4.0168409 30
0.0409602 -1.3406367 3.219384 24
0.035717312 -1.1757585 2.2229733 33
0.032727364 -1.0835652 1.6647905 36
0.031035589 -1.0335304 1.3145963 38
nan nan nan 0
0.013606075 -0.4638966 4.2852478 2
0.030320758 -1.0399745 4.0432405 23
0.037819259 -1.3049848 3.6044593 33
0.036027972 -1.2507137 2.6509595 31
0.032293059 -1.1278955 1.9158239 36
0.030075431 -1.0568885 1.4748185 38
0.028498065 -1.007643 1.1710931 40
0.030809771 -0.99140447 1.0545157 39
0.029669298 -0.96010327 0.85691488 40
0.02459617 -0.80046123 0.60966563 38
0.023988517 -0.78514963 0.49774119 39
0.023532806 -0.77466333 0.40144739 38
0.023181682 -0.76751876 0.31564513 37
0.022689564 -0.75122523 0.23416302 33
0.022414917 -0.74644935 0.15999061 36
0.028564179 -0.97389042 0.94892353 41
0.023635043 -0.81066054 0.67407256 39
0.022904605 -0.79034239 0.55024219 39
0.022645796 -0.78141195 0.44884086 38
0.022315316 -0.77467787 0.35887495 38
0.021705208 -0.75809491 0.27363458 36
0.021125685 -0.74238312 0.19579996 34
0.021037191 -0.74383932 0.12369351 42
nan nan nan 0
0.018080976 -0.65550613 4.169158 8
0.023167666 -0.84527105 4.0887756 17
0.033804726 -1.2412738 4.0168409 31
0.036280259 -1.3407714 3.219384 25
0.031612933 -1.175876 2.2229733 33
0.028944818 -1.0836729 1.6647905 36
0.027427707 -1.0336324 1.3145963 39
nan nan nan 0
0.011917853 -0.46127695 4.2603908 2
0.026690384 -1.0400741 4.0432405 23
0.033219807 -1.3033836 3.5997663 33
0.03166195 -1.250832 2.6509595 31
0.028355774 -1.1280012 1.9158239 36
0.026386019 -1.056987 1.4748185 38
0.02498056 -1.0077363 1.1710931 40
0.027348937 -0.99150598 1.0545157 38
0.026317732 -0.96020103 0.85691488 40
0.021801887 -0.80054224 0.60966563 38
0.021247687 -0.78522855 0.49774119 39
0.02082858 -0.77474082 0.40144739 38
0.020374319 -0.76279962 0.31423512 37
0.020067161 -0.75129986 0.23416302 33
0.019809188 -0.74652308 0.15999061 36
0.025164494 -0.97398418 0.94892353 41
0.020805165 -0.81073815 0.67407256 39
0.020255487 -0.79472685 0.55277538 39
0.019918019 -0.78148621 0.44884086 38
0.019611051 -0.77475101 0.35887495 38
0.019058831 -0.75816607 0.27363458 36
0.018534156 -0.74245232 0.19579996 34
0.01844058 -0.74390817 0.12369351 40
nan nan nan 0
0.015811436 -0.65634209 4.1740975 7
0.020192632 -0.84432882 4.0838799 17
0.029471666 -1.2413843 4.0168409 31
0.031599872 -1.3408899 3.219384 25
0.027508168 -1.1759791 2.2229733 33
0.025161918 -1.0837673 1.6647905 36
0.023819489 -1.0337217 1.3145963 38
nan nan nan 0
0.010295715 -0.4607828 4.2554188 3
0.023059687 -1.0401609 4.0432405 23
0.028669946 -1.3034916 3.5997663 34
0.027295537 -1.2509347 2.6509595 31
0.02441814 -1.1280932 1.9158239 36
0.022696283 -1.0570728 1.4748185 38
0.021462752 -1.0078174 1.1710931 40
0.023887768 -0.99159545 1.0545157 38
0.022965843 -0.96028703 0.85691488 40
0.01900734 -0.80061346 0.60966563 38
0.018506598 -0.78529793 0.49774119 39
0.018124104 -0.77480882 0.40144739 38
0.017711528 -0.76286608 0.31423512 37
0.017444512 -0.7513653 0.23416302 33
0.017088493 -0.74160904 0.15954354 37
0.021764498 -0.97406614 0.94892353 41
0.017975036 -0.81080586 0.67407256 39
0.017481251 -0.79479277 0.55277538 39
0.017190004 -0.781551 0.44884086 39
0.016803529 -0.77009362 0.35723144 38
0.016412221 -0.758228 0.27363458 36
0.0159424 -0.74251252 0.19579996 33
0.015843743 -0.74396801 0.12369351 40
nan nan nan 0
0.013536279 -0.65717006 4.1790366 7
0.017245252 -0.84439415 4.0838799 17
0.02513825 -1.2414796 4.0168409 31
0.026919099 -1.3409921 3.219384 25
0.023355417 -1.1736735 2.2185843 33
0.021378711 -1.0838485 1.6647905 36
0.020210983 -1.0337987 1.3145963 38
nan nan nan 0
0.0086972686 -0.46134892 4.2603908 3
0.019428706 -1.0402349 4.0432405 24
0.024119737 -1.3035839 3.5997663 34
0.022928793 -1.2510223 2.6509595 32
0.020480212 -1.1281717 1.9158239 36
0.019006275 -1.0571455 1.4748185 38
0.017944682 -1.0078863 1.1710931 40
0.020426309 -0.99167275 1.0545157 39
0.019613676 -0.9603613 0.85691488 39
0.016212562 -0.80067492 0.60966563 38
0.015765285 -0.78535783 0.49774119 39
0.015419406 -0.7748673 0.40144739 38
0.015048519 -0.76292324 0.31423512 37
0.014821651 -0.75142163 0.23416302 33
0.014499691 -0.74166417 0.15954354 36
0.018364243 -0.97413611 0.94892353 43
0.015144685 -0.81086355 0.67407256 39
0.014706801 -0.79484892 0.55277538 39
0.014461776 -0.78160626 0.44884086 39
0.014115298 -0.77014762 0.35723144 38
0.013765412 -0.75828063 0.27363458 36
0.01335045 -0.74256366 0.19579996 34
0.013246715 -0.74401879 0.12369351 42
nan nan nan 0
0.011255534 -0.65799016 4.1839757 9
0.014280424 -0.84343117 4.0789847 17
0.020804523 -1.2415597 4.0168409 31
0.022237999 -1.3410779 3.219384 25
0.019258389 -1.1737479 2.2185843 33
0.017595245 -1.0839165 1.6647905 36
0.016602229 -1.0338628 1.3145963 39
nan nan nan 0
0.00710318 -0.4624424 4.2703333 3
0.01579749 -1.0402964 4.0432405 25
0.019569233 -1.30366 3.5997663 34
0.018561771 -1.2510949 2.6509595 32
0.016542032 -1.1282363 1.9158239 36
0.015316031 -1.0572054 1.4748185 38
0.014377875 -1.0045528 1.167418 40
0.016903607 -0.98817229 1.0510112 39
0.016195379 -0.95653224 0.85377645 39
0.013417586 -0.80072665 0.60966563 38
0.013023779 -0.78540802 0.49774119 39
0.012714521 -0.77491641 0.40144739 37
0.012385328 -0.76297116 0.31423512 37
0.01219861 -0.75146884 0.23416302 33
0.011910712 -0.74171025 0.15954354 36
0.014963761 -0.97419429 0.94892353 41
0.012252778 -0.80686998 0.67112941 39
0.011932169 -0.79489541 0.55277538 39
0.011733373 -0.78165197 0.44884086 39
0.011426896 -0.77019215 0.35723144 38
0.011118434 -0.75832409 0.27363458 36
0.010758338 -0.74260575 0.19579996 34
0.010649524 -0.74406052 0.12369351 42
nan nan nan 0
0.0089586508 -0.65802544 4.1839757 8
0.011336213 -0.84347582 4.0789847 17
0.016470544 -1.2416247 4.0168409 31
0.017556626 -1.3411474 3.219384 25
0.015161126 -1.173808 2.2185843 33
0.013775707 -1.0811576 1.6606575 36
0.012952995 -1.0307094 1.3107588 39
nan nan nan 0
0.0054952386 -0.46299741 4.2753048 3
0.012166082 -1.0403453 4.0432405 24
0.015018491 -1.3037205 3.5997663 34
0.014194522 -1.2511519 2.6509595 32
0.012603652 -1.1282871 1.9158239 36
0.011625603 -1.0572524 1.4748185 38
0.010871244 -1.0045969 1.167418 40
0.013454137 -0.98822522 1.0510112 39
0.012856359 -0.9565829 0.85377645 41
0.010622448 -0.80076861 0.60966563 37
0.010282114 -0.78544867 0.49774119 39
0.01000948 -0.77495611 0.40144739 38
0.009721986 -0.76300973 0.31423512 37
0.0095754201 -0.75150675 0.23416302 33
0.0093215881 -0.74174732 0.15954354 36
0.011563098 -0.9742406 0.94892353 41
0.0094362013 -0.80690777 0.67112941 39
0.0091573941 -0.79493225 0.55277538 39
0.0090048267 -0.78168815 0.44884086 39
0.0087383538 -0.77022731 0.35723144 38
0.0084713222 -0.75835824 0.27363458 36
0.0081660943 -0.74263877 0.19579996 33
0.0080522029 -0.74409318 0.12369351 40
nan nan nan 0
0.0066616586 -0.65805274 4.1839757 8
0.0083817355 -0.84249216 4.07409 17
0.012136364 -1.2416748 4.0168409 29
0.012875043 -1.3412004 3.219384 25
0.011086253 -1.1762487 2.2229733 33
0.010001679 -1.081199 1.6606575 36
0.0093550682 -1.0307484 1.3107588 38
nan nan nan 0
0.003883508 -0.46354678 4.2802768 3
0.0085345255 -1.0403814 4.0432405 24
0.010467567 -1.3037648 3.5997663 34
0.0098100025 -1.2490171 2.6464584 32
0.0086651174 -1.1283243 1.9158239 36
0.0079350332 -1.0572866 1.4748185 38
0.0073644803 -1.0046288 1.167418 40
0.010004506 -0.98826623 1.0510112 39
0.0095171826 -0.95662194 0.85377645 41
0.0078271786 -0.8008008 0.60966563 37
0.0075403238 -0.78547978 0.49774119 39
0.0073043173 -0.77498633 0.40144739 38
0.0070585264 -0.76303905 0.31423512 37
0.0069521139 -0.75153565 0.23416302 33
0.0067323497 -0.74177533 0.15954354 36
0.0081622927 -0.97427505 0.94892353 43
0.0066195098 -0.80693585 0.67112941 39
0.0063478989 -0.79064864 0.55024219 39
0.0062761712 -0.7817148 0.44884086 39
0.0060497052 -0.77025318 0.35723144 38
0.0058241058 -0.75838321 0.27363458 36
0.0055737523 -0.74266273 0.19579996 33
0.0054547843 -0.74411672 0.12369351 40
nan nan nan 0
0.0043594325 -0.65729499 4.1790366 9
0.0054408377 -0.84251624 4.07409 17
0.0078020371 -1.2417096 4.0168409 29
0.008193301 -1.3412372 3.219384 25
0.0069803107 -1.1762803 2.2229733 33
0.0062275296 -1.0812274 1.6606575 36
0.0057570282 -1.0307747 1.3107588 38
nan nan nan 0
0.0022627986 -0.46302453 4.2753048 3
0.0049028648 -1.0404049 4.0432405 24
0.005916513 -1.3037934 3.5997663 33
0.0054500601 -1.2490437 2.6464584 32
0.0047264784 -1.1283476 1.9158239 36
0.0042443657 -1.0573078 1.4748185 38
0.0038576266 -1.0046483 1.167418 41
0.0065547526 -0.98829514 1.0510112 39
0.006177891 -0.9566493 0.85377645 40
0.0050318148 -0.80082327 0.60966563 39
0.0047984417 -0.78550136 0.49774119 37
0.0046265763 -0.77964294 0.4033204 38
0.0043949801 -0.76305902 0.31423512 37
0.0043287221 -0.75155532 0.23416302 33
0.0041430299 -0.74179435 0.15954354 36
0.0047613881 -0.97429758 0.94892353 42
0.0038027377 -0.80695409 0.67112941 39
0.0035879808 -0.79066604 0.55024219 39
0.0035474387 -0.78173196 0.44884086 39
0.0033815883 -0.77499175 0.35887495 38
0.0031768191 -0.75839895 0.27363458 36
0.0029813414 -0.74267769 0.19579996 33
0.0028572988 -0.74413127 0.12369351 42
nan nan nan 0
0.0020625773 -0.65652925 4.1740975 9
0.0024998742 -0.84253013 4.07409 17
0.0034676145 -1.2417293 4.0168409 31
0.0035063445 -1.339304 3.2147813 24
0.0028742836 -1.1762974 2.2229733 33
0.0024533037 -1.0812426 1.6606575 36
0.0021589177 -1.0307885 1.3107588 39
nan nan nan 0
0.00064652791 -0.46302959 4.2753048 3
0.0012726805 -1.0416726 4.04808 24
0.0013653889 -1.3038062 3.5997663 34
0.0010900503 -1.2490551 2.6464584 32
0.00078778173 -1.1283573 1.9158239 36
0.00055364659 -1.0573162 1.4748185 38
0.00035072627 -1.0046557 1.167418 41
0.0031049184 -0.98831195 1.0510112 40
0.0028385243 -0.95666504 0.85377645 40
0.0022363896 -0.80083591 0.60966563 38
0.0020565013 -0.78551334 0.49774119 38
0.0019050861 -0.77965438 0.4033204 38
0.0017422643 -0.76786679 0.31564513 37
0.0017052782 -0.75156587 0.23416302 33
0.0015640897 -0.74678421 0.15999061 36
0.0013552126 -0.97057456 0.94559801 41
0.00098591938 -0.80696237 0.67112941 39
0.00082801963 -0.79067373 0.55024219 39
0.00081866351 -0.78173959 0.44884086 39
0.00067634147 -0.77499884 0.35887495 38
0.00052949355 -0.75840539 0.27363458 36
0.00038889432 -0.74268359 0.19579996 33
0.00025977884 -0.74413663 0.12369351 44
nan nan nan 0
-0.00022887881 -0.6557554 4.169158 9
-0.00044165316 -0.84355187 4.0789847 17
-0.00086789223 -1.2432264 4.0216126 31
-0.0011687201 -1.339308 3.2147813 24
-0.0012317778 -1.1763003 2.2229733 33
-0.001320952 -1.0812445 1.6606575 36
-0.0014436941 -1.0339952 1.3145963 39
nan nan nan 0
-0.00096863438 -0.46249595 4.2703333 3
-0.0023634434 -1.0416708 4.04808 24
-0.0031857523 -1.3038031 3.5997663 34
-0.0032642731 -1.2468745 2.641957 32
-0.003150925 -1.1283532 1.9158239 36
-0.0031370788 -1.0573117 1.4748185 38
-0.0031561784 -1.0046508 1.167418 40
-0.00034619766 -0.99188304 1.0545157 40
-0.00050087727 -0.95666915 0.85377645 41
-0.00055906293 -0.80083883 0.60966563 38
-0.00068546436 -0.78551567 0.49774119 38
-0.000816427 -0.77965623 0.4033204 36
-0.00093810132 -0.7678681 0.31564513 37
-0.00091818662 -0.75156718 0.23416302 33
-0.0010426831 -0.7467851 0.15999061 36
-0.0020327328 -0.97057337 0.94559801 42
-0.0018309109 -0.80696094 0.67112941 39
-0.0019319517 -0.79067183 0.55024219 39
-0.0019101218 -0.78173774 0.44884086 39
-0.0020289135 -0.77499658 0.35887495 38
-0.0021178385 -0.75840265 0.27363458 36
-0.0022182507 -0.7476325 0.19649065 33
-0.0023377445 -0.744133 0.12369351 40
nan nan nan 0
-0.0025149074 -0.65497363 4.1642189 10
-0.003386196 -0.8435452 4.0789847 17
-0.0052075568 -1.2432158 4.0216126 31
-0.0058437702 -1.3392957 3.2147813 26
-0.0053378246 -1.1762888 2.2229733 33
-0.0051084524 -1.0840474 1.6647905 36
-0.0050530015 -1.0339838 1.3145963 38
nan nan nan 0
-0.0025830406 -0.46248972 4.2703333 3
-0.0059995386 -1.0416561 4.04808 25
-0.0077368543 -1.303784 3.5997663 34
-0.0076166568 -1.2468554 2.641957 32
-0.007089593 -1.1283354 1.9158239 36
-0.0068277661 -1.0572944 1.4748185 38
-0.0066630454 -1.0046337 1.167418 41
-0.0038085135 -0.99187583 1.0545157 40
-0.0038402728 -0.95666158 0.85377645 41
-0.0033545089 -0.80083197 0.60966563 38
-0.0034080932 -0.7810787 0.49542239 39
-0.0035379303 -0.77964866 0.4033204 36
-0.0036184555 -0.76786023 0.31564513 37
-0.00354164 -0.7515595 0.23416302 33
-0.0036494432 -0.74677694 0.15999061 36
-0.0054206536 -0.97056037 0.94559801 42
-0.0046477192 -0.80694962 0.67112941 39
-0.0046918993 -0.79066026 0.55024219 39
-0.0046388838 -0.7817263 0.44884086 39
-0.0047341436 -0.77498472 0.35887495 38
-0.0047651445 -0.75839067 0.27363458 36
-0.0048279613 -0.74762017 0.19649065 34
-0.0049352394 -0.74412036 0.12369351 42
nan nan nan 0
-0.004801177 -0.65496081 4.1642189 10
-0.0063306973 -0.84352827 4.0789847 17
-0.0095471581 -1.2431901 4.0216126 31
-0.010518748 -1.3392673 3.2147813 26
-0.0094438056 -1.176263 2.2229733 33
-0.0088924523 -1.0840229 1.6647905 36
-0.008662248 -1.0339599 1.3145963 38
nan nan nan 0
-0.0042022532 -0.46301094 4.2753048 3
-0.0096355602 -1.0416288 4.04808 25
-0.012287864 -1.3037491 3.5997663 34
-0.011968948 -1.2468212 2.641957 32
-0.011028175 -1.1283036 1.9158239 36
-0.010518371 -1.057264 1.4748185 38
-0.01016983 -1.0046042 1.167418 42
-0.0072707832 -0.99185646 1.0545157 40
-0.0071796211 -0.95664233 0.85377645 41
-0.0061499137 -0.8008154 0.60966563 39
-0.0061345459 -0.78106213 0.49542239 39
-0.0062593902 -0.7796315 0.4033204 37
-0.0062987655 -0.76784289 0.31564513 36
-0.0061650504 -0.75154251 0.23416302 33
-0.0062561585 -0.74675965 0.15999061 36
-0.0088085085 -0.97053552 0.94559801 42
-0.0074644699 -0.80692846 0.67112941 39
-0.0074517904 -0.79063904 0.55024219 39
-0.00736759 -0.78170532 0.44884086 39
-0.0074393163 -0.77496344 0.35887495 38
-0.0074123926 -0.75836939 0.27363458 36
-0.0074376133 -0.74759883 0.19649065 33
-0.0075326739 -0.7440986 0.12369351 44
nan nan nan 0
-0.0070873871 -0.65494007 4.1642189 10
-0.0092751216 -0.84350103 4.0789847 18
-0.013886643 -1.243149 4.0216126 31
-0.015193599 -1.3392223 3.2147813 26
-0.013549672 -1.1762229 2.2229733 33
-0.012676344 -1.0839853 1.6647905 35
-0.012271388 -1.0339233 1.3145963 38
nan nan nan 0
-0.0058251359 -0.46352649 4.2802768 3
-0.013271465 -1.0415889 4.04808 25
-0.016838722 -1.3036982 3.5997663 34
-0.016321093 -1.2467719 2.641957 32
-0.014966623 -1.1282582 1.9158239 36
-0.014208847 -1.0572208 1.4748185 38
-0.013722642 -1.0079525 1.1710931 42
-0.010732964 -0.99182504 1.0545157 40
-0.010518882 -0.95661145 0.85377645 42
