# .PCD v0.7 - Point Cloud Data file format
VERSION 0.7
FIELDS x y z intensity
SIZE 4 4 4 4
TYPE F F F F
COUNT 1 1 1 1
WIDTH 1440
HEIGHT 1
VIEWPOINT 0 0 0 1 0 0 0
POINTS 1440
DATA ascii
0.055499677 0.74860734 0.57676804 39
0.055258747 0.74359733 0.47687197 39
0.05653733 0.75901026 0.39582828 36
0.057529978 0.7705211 0.31705517 36
0.1261829 1.690016 0.41322607 34
0.30288553 4.0471492 0.45729819 36
0.055391327 0.73325866 0.73609149 44
0.056348681 0.74420267 0.62698203 40
0.055593237 0.73252726 0.51731086 40
0.056410383 0.74329442 0.43205646 38
0.058424581 0.76805794 0.35723144 37
0.058764689 0.77075046 0.27715153 35
0.30713853 4.0191369 0.65441149 37
0.31284645 4.0844469 0.25892076 38
nan nan nan 0
nan nan nan 0
0.036607753 0.47252628 2.3020175 16
0.042510003 0.54747069 1.8026402 31
0.04707228 0.60485876 1.4888349 36
0.049940776 0.64027303 1.2442087 36
0.052687414 0.67396951 1.0655129 38
0.055229288 0.70490134 0.92317086 39
nan nan nan 0
nan nan nan 0
0.040874027 0.51590079 2.0300398 25
0.045559481 0.57376748 1.6194191 34
0.049868338 0.62664628 1.3636123 37
0.053007521 0.66462636 1.1607535 38
0.055193178 0.69051015 0.99202549 40
0.056941845 0.7108252 0.85135388 45
0.056103233 0.72581536 0.79517925 40
0.057358541 0.74037367 0.6811614 40
0.058112465 0.74840909 0.57676804 39
0.057854045 0.74339986 0.47687197 39
0.059186425 0.75880826 0.39582828 37
0.060219251 0.77031565 0.31705517 36
0.13169855 1.6846681 0.41229346 35
0.31701088 4.0460672 0.45729819 36
0.057950541 0.7330609 0.73609149 43
0.058946088 0.74400145 0.62698203 40
0.058149897 0.73232877 0.51731086 40
0.059004623 0.74309301 0.43205646 38
0.061105248 0.76784945 0.35723144 37
0.06184119 0.77538586 0.27832383 35
0.32116607 4.0180407 0.65441149 38
0.32710195 4.0833297 0.25892076 38
nan nan nan 0
nan nan nan 0
0.038256954 0.47239563 2.3020175 16
0.044420771 0.54731894 1.8026402 31
0.049183346 0.60469079 1.4888349 36
0.052175444 0.64009482 1.2442087 37
0.055039689 0.67378145 1.0655129 38
0.057689518 0.70470428 0.92317086 40
nan nan nan 0
nan nan nan 0
0.042674609 0.515755 2.0300398 25
0.047562029 0.57360488 1.6194191 33
0.052055441 0.62646842 1.3636123 37
0.055327173 0.66443723 1.1607535 38
0.057603169 0.69031322 0.99202549 40
0.059705235 0.71400046 0.85502905 47
0.05863646 0.72561508 0.79517925 40
0.059942577 0.74016899 0.6811614 40
0.060724545 0.74820161 0.57676804 39
0.060448647 0.74319339 0.47687197 38
0.061834801 0.75859702 0.39582828 37
0.062907793 0.77010065 0.31705517 36
0.13717839 1.6793021 0.41136083 35
0.33113238 4.0449357 0.45729819 36
0.060509048 0.73285413 0.73609149 42
0.061542783 0.74379116 0.62698203 40
0.061062068 0.73641729 0.51984406 40
0.061598144 0.74288249 0.43205646 38
0.063785173 0.76763147 0.35723144 37
0.064547412 0.77516526 0.27832383 35
0.33518967 4.0168948 0.65441149 38
0.3417697 4.0871415 0.25912228 38
nan nan nan 0
nan nan nan 0
0.039991423 0.47327384 2.3069127 16
0.046331003 0.54716057 1.8026402 31
0.051293813 0.60451549 1.4888349 36
0.05440947 0.63990885 1.2442087 37
0.05739129 0.67358524 1.0655129 39
0.059876382 0.70130503 0.9193334 40
nan nan nan 0
nan nan nan 0
0.044474669 0.51560289 2.0300398 25
0.049563993 0.57343537 1.6194191 33
0.054241907 0.62628287 1.3636123 37
0.057646159 0.66424012 1.1607535 38
0.060012463 0.690108 0.99202549 39
0.062197197 0.71378767 0.85502905 46
0.06116898 0.72540599 0.79517925 39
0.062525883 0.73995525 0.6811614 40
0.063335888 0.74798512 0.57676804 39
0.063042507 0.74297792 0.47687197 38
0.064482421 0.7583766 0.39582828 37
0.06559556 0.76987636 0.31705517 36
0.1426224 1.6739184 0.41042823 35
0.34482616 4.0387931 0.45685109 36
0.063387044 0.73635846 0.73941702 41
0.064138725 0.74357182 0.62698203 40
0.063632265 0.73619968 0.51984406 40
0.064581737 0.74718463 0.43415451 38
0.066464312 0.76740408 0.35723144 37
0.067252852 0.77493525 0.27832383 35
0.34920922 4.0157003 0.65441149 38
0.3560344 4.0859232 0.25912228 36
nan nan nan 0
nan nan nan 0
0.04173249 0.47414556 2.3118079 16
0.048240669 0.54699552 1.8026402 30
0.053403649 0.60433269 1.4888349 36
0.056854073 0.64210057 1.2485977 36
0.05974219 0.67338085 1.0655129 38
0.062324025 0.70109177 0.9193334 40
nan nan nan 0
nan nan nan 0
0.046274193 0.51544446 2.0300398 25
0.051565357 0.57325894 1.6194191 33
0.05642771 0.62608969 1.3636123 37
0.059964441 0.66403478 1.1607535 38
0.062421024 0.68989432 0.99202549 40
0.064688407 0.7135663 0.85502905 45
0.063700743 0.72518802 0.79517925 39
0.065108433 0.7397325 0.6811614 40
0.06594646 0.74775946 0.57676804 39
0.065245673 0.73834068 0.47455317 39
0.067129254 0.75814682 0.39582828 37
0.06828253 0.76964271 0.31705517 36
0.14803049 1.6685175 0.40949559 35
0.35936305 4.0425258 0.45729819 36
0.065957032 0.73613268 0.73941702 41
0.066733882 0.74334335 0.62698203 40
0.066201702 0.73597312 0.51984406 40
0.067189507 0.74695468 0.43415451 38
0.069142655 0.76716739 0.35723144 37
0.069520324 0.76985484 0.27715153 36
0.364117 4.0243211 0.65579289 37
0.36578423 4.0349011 0.25710699 25
nan nan nan 0
nan nan nan 0
0.043480128 0.47501102 2.3167031 16
0.050149746 0.5468238 1.8026402 30
0.055691604 0.6060881 1.4934374 36
0.059095073 0.64189827 1.2485977 36
0.062350832 0.67597038 1.0696459 38
0.064770915 0.70086986 0.9193334 40
nan nan nan 0
nan nan nan 0
0.048073143 0.51527983 2.0300398 24
0.053566087 0.57307541 1.6194191 33
0.058612831 0.62588894 1.3636123 37
0.062281989 0.66382146 1.1607535 38
0.064828828 0.68967223 0.99202549 41
0.067178816 0.71333611 0.85502905 45
0.066231735 0.72496128 0.79517925 40
0.067690186 0.7395007 0.6811614 39
0.068938106 0.75168872 0.5795095 39
0.067822561 0.73810852 0.47455317 39
0.069775276 0.75790793 0.39582828 37
0.070968665 0.76939976 0.31705517 36
0.15385379 1.6679906 0.40949559 35
0.37163883 4.0214109 0.45550987 30
0.068526208 0.73589802 0.73941702 41
0.069328234 0.74310595 0.62698203 41
0.068770319 0.73573756 0.51984406 40
0.06979645 0.74671561 0.43415451 38
0.071820147 0.7669214 0.35723144 37
0.07220719 0.76960748 0.27715153 35
0.37816229 4.0230255 0.65579289 37
0.37799275 4.0137033 0.25630087 23
nan nan nan 0
nan nan nan 0
0.045137957 0.47485638 2.3167031 15
0.052058209 0.54664534 1.8026402 30
0.057806905 0.60588998 1.4934374 36
0.061335355 0.64168805 1.2485977 36
0.064710028 0.67574859 1.0696459 38
0.067217007 0.70063949 0.9193334 40
nan nan nan 0
nan nan nan 0
0.049871515 0.51510888 2.0300398 24
0.055732768 0.57460254 1.6241118 33
0.060797229 0.62568051 1.3636123 37
0.064598776 0.66360003 1.1607535 38
0.067235835 0.68944174 0.99202549 40
0.06966842 0.71309727 0.85502905 45
0.068761922 0.72472572 0.79517925 40
0.070271105 0.73925984 0.6811614 39
0.071561567 0.75144345 0.5795095 39
0.070398629 0.73786724 0.47455317 39
0.072420441 0.75765973 0.39582828 37
0.073196657 0.76437205 0.31564513 36
0.15920696 1.6625534 0.40856299 35
0.37426004 3.9011164 0.44477996 19
0.07109455 0.73565429 0.73941702 42
0.071921729 0.74285936 0.62698203 40
0.071338102 0.735493 0.51984406 40
0.072402552 0.74646741 0.43415451 38
0.074496761 0.76666605 0.35723144 37
0.074893184 0.76935077 0.27715153 35
0.38355109 3.9329643 0.64336061 29
0.37111226 3.7985523 0.24763504 30
nan nan nan 0
nan nan nan 0
0.046895128 0.4757092 2.3215983 15
0.054112744 0.54794586 1.8074121 30
0.059921507 0.60568452 1.4934374 36
0.063574895 0.64147007 1.2485977 36
0.067068443 0.67551857 1.0696459 38
0.069662288 0.70040065 0.9193334 41
nan nan nan 0
nan nan nan 0
0.051669274 0.51493168 2.0300398 24
0.057738163 0.57440448 1.6241118 33
0.06298089 0.62546444 1.3636123 37
0.066914782 0.66337049 1.1607535 38
0.069642022 0.68920279 0.99202549 40
0.072157167 0.71284974 0.85502905 45
0.07129126 0.72448128 0.79517925 40
0.072851181 0.7390101 0.6811614 40
0.074184157 0.75118905 0.5795095 38
0.073409952 0.74202526 0.47687197 39
0.075521939 0.7620157 0.39770132 37
0.076338321 0.76888549 0.31705517 36
0.16452406 1.6570994 0.40763035 35
0.37653896 3.7858093 0.43449715 24
0.073662028 0.73540169 0.73941702 41
0.074514359 0.74260384 0.62698203 40
0.073905021 0.73523945 0.51984406 40
0.075007766 0.7462101 0.43415451 38
0.077172473 0.76640129 0.35723144 37
0.077578269 0.76908469 0.27715153 35
0.38931167 3.8527701 0.63230973 30
0.38336313 3.7872927 0.24723196 39
nan nan nan 0
nan nan nan 0
0.048555378 0.47554258 2.3215983 15
0.056025103 0.54775363 1.8074121 30
0.062035374 0.60547161 1.4934374 35
0.065813653 0.64124423 1.2485977 36
0.06942603 0.67528039 1.0696459 38
0.072106719 0.70015317 0.9193334 40
nan nan nan 0
nan nan nan 0
0.053466406 0.51474816 2.0300398 24
0.059742857 0.5741995 1.6241118 33
0.065163784 0.6252408 1.3636123 37
0.069229968 0.66313285 1.1607535 38
0.072047368 0.68895555 0.99202549 39
0.074645035 0.71259356 0.85502905 46
0.073819734 0.72422802 0.79517925 41
0.075430363 0.73875129 0.6811614 40
0.076805845 0.7509256 0.5795095 38
0.075999655 0.74176449 0.47687197 39
0.078181408 0.76174742 0.39770132 37
0.079021767 0.76861441 0.31705517 36
0.17030743 1.6565149 0.40763035 35
0.38567021 3.7448416 0.43092051 37
0.076228619 0.73514003 0.73941702 41
0.077106066 0.74233919 0.62698203 42
0.076471031 0.73497707 0.51984406 40
0.077612065 0.74594378 0.43415451 38
0.079847239 0.76612723 0.35723144 37
0.0802624 0.7688092 0.27715153 35
0.38988164 3.7282574 0.61504275 40
0.3971014 3.7909002 0.24743348 39
nan nan nan 0
nan nan nan 0
0.050215036 0.47537017 2.3215983 15
0.057936776 0.54755473 1.8074121 30
0.064148486 0.60525143 1.4934374 36
0.068051606 0.64101058 1.2485977 36
0.071782775 0.67503393 1.0696459 38
0.074550271 0.69989723 0.9193334 40
nan nan nan 0
nan nan nan 0
0.055262886 0.51455837 2.0300398 24
0.061931394 0.5757032 1.6288046 33
0.067345887 0.62500954 1.3636123 36
0.071544312 0.66288722 1.1607535 38
0.074451834 0.68869984 0.99202549 39
0.077131994 0.71232861 0.85502905 46
0.076347321 0.72396594 0.79517925 40
0.078008629 0.73848349 0.6811614 40
0.079426594 0.75065291 0.5795095 39
0.079055324 0.7458998 0.47919077 38
0.080839925 0.76146984 0.39770132 37
0.081704244 0.76833385 0.31705517 36
0.17556927 1.6510257 0.40669775 35
0.39926726 3.7484248 0.43136761 38
0.078794271 0.73486948 0.73941702 43
0.079696849 0.74206549 0.62698203 41
0.079036117 0.73470563 0.51984406 40
0.080215424 0.74566829 0.43415451 38
0.082521036 0.76584387 0.35723144 37
0.083467118 0.77335691 0.27832383 35
0.40289336 3.7268736 0.61504275 38
0.41033173 3.7894909 0.24743348 39
nan nan nan 0
nan nan nan 0
0.051984578 0.47620425 2.3264935 15
0.059847746 0.54734915 1.8074121 30
0.066260822 0.6050238 1.4934374 36
0.070288748 0.64076912 1.2485977 35
0.074138649 0.67477924 1.0696459 38
0.077343531 0.70281869 0.92317086 40
nan nan nan 0
nan nan nan 0
0.057058696 0.51436239 2.0300398 24
0.0639406 0.5754835 1.6288046 33
0.069767937 0.62693423 1.3681135 37
0.073857777 0.66263336 1.1607535 38
0.076855391 0.68843579 0.99202549 40
0.079618022 0.71205503 0.85502905 46
0.07887397 0.72369504 0.79517925 40
0.081008337 0.74207604 0.68429983 40
0.08204639 0.75037104 0.5795095 39
0.08165852 0.74561936 0.47919077 38
0.083497465 0.76118302 0.39770132 37
0.084385738 0.76804399 0.31705517 36
0.18079486 1.6455199 0.40576512 35
0.41180453 3.7420576 0.43092051 37
0.081358962 0.73458993 0.73941702 43
0.082286648 0.74178284 0.62698203 40
0.081600234 0.73442525 0.51984406 40
0.082817808 0.74538368 0.43415451 38
0.085193828 0.76555115 0.35723144 37
0.086166129 0.77306074 0.27832383 36
0.41590011 3.7254448 0.61504275 38
0.42355701 3.7880354 0.24743348 39
nan nan nan 0
nan nan nan 0
0.053646527 0.47601989 2.3264935 15
0.061757986 0.5471369 1.8074121 30
0.068372339 0.60478884 1.4934374 35
0.072525017 0.64051986 1.2485977 36
0.076493613 0.67451626 1.0696459 38
0.079796351 0.70254451 0.92317086 42
nan nan nan 0
nan nan nan 0
0.058853805 0.51416004 2.0300398 24
0.065949023 0.57525682 1.6288046 33
0.071955927 0.62668687 1.3681135 37
0.076170355 0.66237152 1.1607535 38
0.079602771 0.69115674 0.99601549 40
0.082103074 0.7117728 0.85502905 45
0.081399649 0.72341526 0.79517925 40
0.083598174 0.74178874 0.68429983 40
0.084196158 0.74592507 0.57676804 39
0.08426071 0.74532974 0.47919077 39
0.086153984 0.76088691 0.39770132 36
0.087066188 0.76774472 0.31705517 36
0.18598418 1.6399978 0.40483251 35
0.42542627 3.7455459 0.43136761 37
0.083922662 0.73430151 0.73941702 43
0.084875457 0.74149102 0.62698203 40
0.08416336 0.73413593 0.51984406 40
0.085419178 0.74509007 0.43415451 39
0.087865584 0.76524907 0.35723144 37
0.088864088 0.77275527 0.27832383 35
0.42833516 3.7190504 0.61435205 40
0.43677714 3.7865341 0.24743348 39
nan nan nan 0
nan nan nan 0
0.055425376 0.47684109 2.3313887 14
0.063667476 0.54691803 1.8074121 30
0.070483029 0.60454649 1.4934374 35
0.075038172 0.64264172 1.2529868 35
0.078847647 0.67424518 1.0696459 38
0.082248203 0.70226169 0.92317086 41
nan nan nan 0
nan nan nan 0
0.060648203 0.51395154 2.0300398 23
0.067956641 0.57502306 1.6288046 33
0.07414303 0.62643182 1.3681135 37
0.078481995 0.66210163 1.1607535 38
0.082014881 0.69087464 0.99601549 39
0.08458712 0.71148181 0.85502905 45
0.083924346 0.72312677 0.79517925 40
0.086186983 0.74149245 0.68429983 40
0.08679942 0.74562657 0.57676804 39
0.086348891 0.7406311 0.47687197 39
0.088809446 0.76058155 0.39770132 36
0.089745589 0.76743615 0.31705517 36
0.1917077 1.6393387 0.40483251 35
0.43849808 3.7440381 0.43136761 37
0.086485341 0.73400408 0.73941702 41
0.08746323 0.74119031 0.62698203 40
0.086725466 0.73383766 0.51984406 40
0.088019513 0.74478734 0.43415451 39
0.090536259 0.7649377 0.35723144 37
0.090988822 0.76761359 0.27715153 36
0.44189826 3.7224503 0.61504275 39
0.44999194 3.7849863 0.24743348 39
nan nan nan 0
nan nan nan 0
0.057210617 0.47765571 2.3362839 14
0.065576188 0.54669237 1.8074121 30
0.072592862 0.60429674 1.4934374 35
0.077280954 0.64237583 1.2529868 35
0.081200726 0.67396587 1.0696459 38
0.08469905 0.70197028 0.92317086 40
nan nan nan 0
nan nan nan 0
0.062441856 0.51373667 2.0300398 23
0.069963433 0.57478237 1.6288046 33
0.076065816 0.62400836 1.3636123 37
0.080792688 0.66182363 1.1607535 38
0.084425978 0.69058418 0.99601549 40
0.087070145 0.71118224 0.85502905 46
0.086448021 0.7228294 0.79517925 40
0.088774756 0.7411871 0.68429983 40
0.08940161 0.74531901 0.57676804 39
0.088933654 0.74032509 0.47687197 39
0.091463827 0.76026696 0.39770132 37
0.092423901 0.76711822 0.31705517 36
0.19684131 1.6337825 0.40389988 35
0.45156455 3.7424846 0.43136761 37
0.08904697 0.73369771 0.73941702 42
0.09004993 0.74088043 0.62698203 40
0.089286506 0.73353046 0.51984406 40
0.090618767 0.7444756 0.43415451 39
0.093205839 0.76461703 0.35723144 37
0.093667746 0.76729131 0.27715153 35
0.45488936 3.7208853 0.61504275 39
0.46320125 3.7833924 0.24743348 39
nan nan nan 0
nan nan nan 0
0.058877595 0.47745311 2.3362839 13
0.067484103 0.54646021 1.8074121 30
0.074701808 0.60403967 1.4934374 35
0.079522803 0.64210218 1.2529868 36
0.083552808 0.67367828 1.0696459 37
0.08714886 0.70167035 0.92317086 40
nan nan nan 0
nan nan nan 0
0.064234748 0.51351553 2.0300398 23
0.071969375 0.57453465 1.6288046 33
0.078243554 0.623739 1.3636123 36
0.08310239 0.66153759 1.1607535 37
0.086459965 0.68729562 0.99202549 40
0.089975826 0.71423763 0.85870421 45
0.088970639 0.72252321 0.79517925 40
0.091361433 0.74087268 0.68429983 40
0.092002712 0.74500245 0.57676804 39
0.091517329 0.7400102 0.47687197 39
0.094117105 0.75994307 0.39770132 37
0.095101073 0.76679087 0.31705517 36
0.20193847 1.6282105 0.40296727 35
0.46462551 3.7408855 0.43136761 37
0.091607511 0.7333824 0.73941702 43
0.092635535 0.74056154 0.62698203 40
0.091846459 0.73321438 0.51984406 40
0.093216918 0.74415475 0.43415451 39
0.095874287 0.76428705 0.35723144 37
0.096345522 0.76695967 0.27715153 35
0.46787488 3.7192748 0.61504275 39
0.47640496 3.7817528 0.24743348 37
nan nan nan 0
nan nan nan 0
0.060543861 0.47724468 2.3362839 13
0.069391191 0.54622132 1.8074121 30
0.076809846 0.60377526 1.4934374 35
0.081763662 0.64182067 1.2529868 36
0.085903876 0.67338252 1.0696459 37
0.08959762 0.70136189 0.92317086 40
nan nan nan 0
nan nan nan 0
0.066026866 0.5132882 2.0300398 23
0.073974431 0.5742799 1.6288046 33
0.08042033 0.62346208 1.3636123 36
0.085411072 0.66124344 1.1607535 37
0.088858545 0.68698961 0.99202549 39
0.092468433 0.71391916 0.85870421 45
0.091940381 0.72574621 0.79868376 40
0.093947008 0.74054921 0.68429983 40
0.094602697 0.74467677 0.57676804 39
0.094658926 0.74408066 0.47919077 39
0.096769221 0.75960988 0.39770132 37
0.097777098 0.76645422 0.31705517 36
0.20699914 1.622623 0.40203464 33
0.47768077 3.7392409 0.43136761 37
0.094166927 0.73305815 0.73941702 42
0.095220014 0.74023372 0.62698203 40
0.094956025 0.73716474 0.52237725 40
0.09581393 0.74382478 0.43415451 39
0.099145673 0.76863116 0.35887495 37
0.099022113 0.76661867 0.27715153 35
0.48085469 3.7176189 0.61504275 39
0.48896107 3.7751119 0.24723196 37
nan nan nan 0
nan nan nan 0
0.062209383 0.47703043 2.3362839 12
0.071297437 0.54597574 1.8074121 30
0.078916945 0.60350347 1.4934374 35
0.084003538 0.64153141 1.2529868 36
0.088253893 0.67307854 1.0696459 38
0.092045285 0.7010448 0.92317086 39
nan nan nan 0
nan nan nan 0
0.06781818 0.51305461 2.0300398 22
0.07620503 0.57572901 1.6334974 33
0.082882151 0.62533563 1.3681135 36
0.087718725 0.66094124 1.1607535 37
0.091256037 0.68667525 0.99202549 39
0.094959915 0.71359205 0.85870421 43
0.094473153 0.72542083 0.79868376 40
0.096531428 0.74021673 0.68429983 40
0.097201526 0.74434203 0.57676804 39
0.09725567 0.74374568 0.47919077 39
0.099420168 0.75926751 0.39770132 37
0.10045193 0.76610827 0.31705517 36
0.21266189 1.6218905 0.40203464 33
0.49137855 3.7424879 0.43181467 37
0.096725211 0.73272496 0.73941702 42
0.097803339 0.73989683 0.62698203 43
0.097528636 0.7368288 0.52237725 40
0.098409779 0.74348587 0.43415451 39
0.10182809 0.76828039 0.35887495 37
0.10169751 0.76626831 0.27715153 36
0.49448106 3.7208266 0.61573344 39
0.49949968 3.7535729 0.24642584 26
nan nan nan 0
nan nan nan 0
0.063874155 0.47681037 2.3362839 12
0.073401257 0.547203 1.8121842 30
0.08102309 0.60322434 1.4934374 35
0.086242393 0.64123422 1.2529868 35
0.090602838 0.67276639 1.0696459 38
0.094491832 0.7007193 0.92317086 39
nan nan nan 0
nan nan nan 0
0.069608659 0.51281476 2.0300398 22
0.078214243 0.57545948 1.6334974 32
0.085064486 0.6250425 1.3681135 36
0.089673162 0.65804684 1.1564876 37
0.093652427 0.68635249 0.99202549 39
0.097450234 0.7132563 0.85870421 42
0.097004756 0.72508669 0.79868376 40
0.099114679 0.73987526 0.68429983 40
0.099799171 0.74399817 0.57676804 39
0.099851243 0.74340165 0.47919077 39
0.1020699 0.75891578 0.39770132 37
0.10312553 0.76575291 0.31705517 36
0.21766642 1.6162701 0.40110204 35
0.50577033 3.7506206 0.43270883 35
0.099783868 0.73608285 0.74274248 43
0.10038546 0.73955095 0.62698203 42
0.10010006 0.73648387 0.52237725 40
0.10100444 0.74313778 0.43415451 39
0.10450928 0.76792026 0.35887495 37
0.10437167 0.76590866 0.27715153 35
0.50746614 3.7190778 0.61573344 40
0.50177824 3.6726074 0.24320135 17
nan nan nan 0
nan nan nan 0
0.065399423 0.47557577 2.3313887 11
0.075310916 0.54694343 1.8121842 30
0.083128236 0.60293782 1.4934374 35
0.088480189 0.64092928 1.2529868 35
0.092950679 0.67244607 1.0696459 38
0.097376652 0.70356011 0.92700839 40
nan nan nan 0
nan nan nan 0
0.071398295 0.51256865 2.0300398 21
0.080222487 0.57518291 1.6334974 32
0.087245762 0.62474173 1.3681135 36
0.091969624 0.65772986 1.1564876 37
0.096465483 0.68900555 0.99601549 39
0.099939369 0.71291173 0.85870421 43
0.099535197 0.72474366 0.79868376 40
0.10169672 0.73952478 0.68429983 40
0.10239561 0.74364525 0.57676804 39
0.10244559 0.74304855 0.47919077 39
0.10471839 0.75855488 0.39770132 37
0.10579787 0.76538837 0.31705517 36
0.22330692 1.6155003 0.40110204 34
0.50861812 3.6748381 0.42600262 21
0.10235267 0.73572999 0.74274248 44
0.10352402 0.74319941 0.62992519 42
0.10267025 0.73612994 0.52237725 40
0.10359785 0.74278069 0.43415451 39
0.10718918 0.76755077 0.35887495 37
0.10771766 0.77035344 0.27832383 35
0.51975846 3.7123795 0.61504275 33
0.50557852 3.6065152 0.24058145 18
nan nan nan 0
nan nan nan 0
0.067059092 0.4753446 2.3313887 11
0.077219635 0.54667717 1.8121842 30
0.085232377 0.60264397 1.4934374 35
0.090716913 0.64061648 1.2529868 35
0.094902344 0.66933125 1.0655129 38
0.099831939 0.70321596 0.92700839 40
nan nan nan 0
nan nan nan 0
0.073364809 0.51356059 2.0348792 21
0.082229771 0.57489944 1.6334974 32
0.089425988 0.6244334 1.3681135 36
0.094264969 0.65740478 1.1564876 37
0.098869964 0.68866462 0.99601549 39
0.10242729 0.71255851 0.85870421 45
0.10206441 0.72439176 0.79868376 39
0.10427753 0.73916531 0.68429983 40
0.10557562 0.74742365 0.5795095 39
0.1050387 0.74268645 0.47919077 39
0.10736561 0.75818467 0.39770132 37
0.10846894 0.76501435 0.31705517 36
0.22825512 1.6098474 0.4001694 35
0.51584285 3.6335962 0.42242602 17
0.10492023 0.73536825 0.74274248 40
0.10611764 0.7428335 0.62992519 43
0.10523921 0.73576713 0.52237725 40
0.10619002 0.74241459 0.43415451 39
0.10986777 0.76717192 0.35887495 37
0.11040603 0.76997274 0.27832383 35
0.51934284 3.6174085 0.60191983 25
0.50465858 3.5107715 0.23675236 28
nan nan nan 0
nan nan nan 0
0.068717949 0.47510764 2.3313887 10
0.079341359 0.5478816 1.8169562 29
0.087335482 0.60234278 1.4934374 35
0.092952527 0.64029598 1.2529868 35
0.097238168 0.66899598 1.0655129 38
0.10228602 0.70286316 0.92700839 40
nan nan nan 0
nan nan nan 0
0.075157017 0.51330137 2.0348792 20
0.084236041 0.57460886 1.6334974 32
0.091605127 0.62411743 1.3681135 36
0.096559159 0.65707177 1.1564876 37
0.10127325 0.68831533 0.99601549 39
0.10491396 0.71219665 0.85870421 45
0.10459239 0.72403109 0.79868376 39
0.10741424 0.74264902 0.68743831 40
0.10818397 0.74705058 0.5795095 39
0.10763051 0.74231523 0.47919077 39
0.1100115 0.75780535 0.39770132 37
0.11113868 0.76463109 0.31705517 36
0.23316658 1.6041796 0.3992368 35
0.51848304 3.5627806 0.4161669 18
0.1074865 0.73499751 0.74274248 40
0.10870995 0.74245852 0.62992519 42
0.10780687 0.73539525 0.52237725 40
0.10878088 0.74203932 0.43415451 39
0.11254504 0.76678377 0.35887495 37
0.11309306 0.76958269 0.27832383 35
0.52259576 3.5518823 0.59294099 26
0.51399803 3.4892178 0.23594624 39
nan nan nan 0
nan nan nan 0
0.070525244 0.47587207 2.3362839 10
0.081253342 0.54760134 1.8169562 29
0.0897246 0.60396671 1.4980398 35
0.095187016 0.63996756 1.2529868 35
0.099572808 0.66865242 1.0655129 38
0.10473885 0.70250189 0.92700839 40
nan nan nan 0
nan nan nan 0
0.076948322 0.51303589 2.0348792 20
0.086241283 0.57431132 1.6334974 32
0.093783148 0.6237939 1.3681135 36
0.099240378 0.65930974 1.1607535 37
0.10367531 0.68795758 0.99601549 39
0.10739935 0.71182609 0.85870421 46
0.10711909 0.7236616 0.79868376 40
0.11000592 0.74226952 0.68743831 39
0.11079101 0.7466684 0.5795095 39
0.11022101 0.74193507 0.47919077 39
0.11265607 0.75741667 0.39770132 37
0.11380706 0.76423848 0.31705517 36
0.23876479 1.6033559 0.3992368 35
0.51402587 3.4476619 0.40588409 36
0.11005147 0.73461783 0.74274248 42
0.11130096 0.74207455 0.62992519 40
0.11037321 0.73501444 0.52237725 40
0.11137041 0.74165511 0.43415451 39
0.11451886 0.76171649 0.35723144 38
0.11577872 0.76918328 0.27832383 35
0.52023208 3.452101 0.57912743 33
0.52617455 3.4874024 0.23594624 39
nan nan nan 0
nan nan nan 0
0.072185911 0.47562301 2.3362839 8
0.083164327 0.54731435 1.8169562 29
0.091832288 0.6036498 1.4980398 35
0.097420335 0.63963139 1.2529868 35
0.10190623 0.66830075 1.0655129 38
0.10719039 0.70213199 0.92700839 40
nan nan nan 0
nan nan nan 0
0.078738682 0.51276422 2.0348792 19
0.088245481 0.5740068 1.6334974 32
0.095960021 0.62346274 1.3681135 36
0.10154121 0.65895933 1.1607535 37
0.1060761 0.68759155 0.99601549 39
0.10988344 0.71144682 0.85870421 45
0.10964449 0.72328329 0.79868376 40
0.11259624 0.74188101 0.68743831 39
0.11339669 0.74627709 0.5795095 39
0.11281018 0.74154574 0.47919077 39
0.11529925 0.7570188 0.39770132 37
0.11647405 0.7638365 0.31705517 36
0.24361959 1.5976566 0.39830416 34
0.52680892 3.4507694 0.40633118 38
0.11261509 0.73422927 0.74274248 42
0.11389061 0.74168152 0.62992519 40
0.11293823 0.73462474 0.52237725 40
0.1139586 0.74126184 0.43415451 39
0.11717705 0.76131207 0.35723144 38
0.11846297 0.76877439 0.27832383 35
0.52850384 3.4257932 0.575674 45
0.5375821 3.4806073 0.23574471 38
nan nan nan 0
nan nan nan 0
0.074002005 0.47637424 2.3411791 8
0.085303701 0.54849571 1.8217281 29
0.093938865 0.60332555 1.4980398 35
0.099652477 0.63928747 1.2529868 35
0.10467233 0.67072141 1.0696459 38
0.10964064 0.7017535 0.92700839 40
nan nan nan 0
nan nan nan 0
0.08052808 0.51248622 2.0348792 19
0.090248592 0.57369524 1.6334974 32
0.098474406 0.62527436 1.3726147 36
0.10384078 0.65860087 1.1607535 37
0.1084756 0.68721706 0.99601549 39
0.11236617 0.71105891 0.85870421 45
0.11216855 0.7228961 0.79868376 40
0.11518521 0.74148345 0.68743831 40
0.116001 0.74587673 0.5795095 38
0.11539797 0.74114746 0.47919077 39
0.11794105 0.75661176 0.39770132 37
0.11987931 0.76816499 0.3184652 36
0.24843755 1.591943 0.39737153 34
0.53885108 3.4489095 0.40633118 38
0.11517734 0.73383164 0.74274248 43
0.11647887 0.74127948 0.62992519 40
0.11550185 0.73422599 0.52237725 40
0.11725066 0.74534285 0.43625253 39
0.11983382 0.76089841 0.35723144 38
0.12114577 0.7683562 0.27832383 35
0.54045886 3.4239275 0.575674 56
0.54738891 3.4639053 0.23514012 34
nan nan nan 0
nan nan nan 0
0.075664409 0.47611302 2.3411791 8
0.087217785 0.54819465 1.8217281 28
0.096351594 0.60492331 1.5026424 35
0.1018834 0.63893569 1.2529868 35
0.10701294 0.67035192 1.0696459 38
0.11208955 0.70136654 0.92700839 40
nan nan nan 0
nan nan nan 0
0.082316503 0.51220196 2.0348792 18
0.092524737 0.57508051 1.6381902 32
0.10065641 0.62492687 1.3726147 36
0.10655427 0.6608091 1.1650195 36
0.11087377 0.68683422 0.99601549 39
0.11484756 0.71066236 0.85870421 45
0.11469125 0.72250021 0.79868376 40
0.11777276 0.74107689 0.68743831 40
0.11860388 0.74546731 0.5795095 38
0.11798436 0.74074012 0.47919077 39
0.1205814 0.75619543 0.39770132 37
0.12255997 0.7677418 0.3184652 36
0.25321856 1.5862153 0.39643893 35
0.54931492 3.4371724 0.40543702 35
0.11773819 0.73342514 0.74274248 44
0.1190657 0.74086827 0.62992519 41
0.11806408 0.73381841 0.52237725 40
0.11985169 0.74492913 0.43625253 39
0.12248911 0.76047552 0.35723144 38
0.1238271 0.76792866 0.27832383 35
0.55240726 3.4220202 0.575674 51
0.55628872 3.4422457 0.23433399 30
nan nan nan 0
nan nan nan 0
0.077489212 0.47685105 2.3460746 7
0.089130819 0.54788685 1.8217281 28
0.098462582 0.60458332 1.5026424 35
0.10411308 0.63857621 1.2529868 34
0.10935225 0.66997433 1.0696459 38
0.11453709 0.70097101 0.92700839 40
nan nan nan 0
nan nan nan 0
0.084103912 0.51191157 2.0348792 18
0.094531581 0.574754 1.6381902 32
0.1028372 0.62457168 1.3726147 36
0.10886027 0.66043311 1.1650195 37
0.11327059 0.68644303 0.99601549 39
0.11732753 0.71025717 0.85870421 45
0.11721254 0.72209543 0.79868376 40
0.12035888 0.74066132 0.68743831 40
0.12120533 0.74504876 0.5795095 39
0.1205693 0.74032384 0.47919077 38
0.12322028 0.75576997 0.39770132 37
0.12523915 0.76730937 0.3184652 36
0.25875396 1.5853217 0.39643893 35
0.55890036 3.4204895 0.40409577 31
0.1202976 0.73300964 0.74274248 43
0.12165108 0.74044824 0.62992519 40
0.12062486 0.73340178 0.52237725 40
0.12245124 0.74450618 0.43625253 38
0.12591012 0.76470274 0.35887495 37
0.12650691 0.76749176 0.27832383 36
0.56273657 3.4102991 0.57429266 39
0.56992948 3.4501412 0.23473704 30
0.0085238991 0.051377431 4.3741069 2
nan nan nan 0
0.079153262 0.47657767 2.3460746 6
0.091042757 0.54757237 1.8217281 28
0.10057238 0.60423595 1.5026424 34
0.10634149 0.63820893 1.2529868 34
0.11169023 0.66958857 1.0696459 38
0.11698324 0.70056689 0.92700839 39
nan nan nan 0
nan nan nan 0
0.085890308 0.51161486 2.0348792 18
0.096823283 0.5761224 1.6428828 32
0.10501674 0.62420887 1.3726147 36
0.11116494 0.66004908 1.1650195 37
0.11566602 0.68604344 0.99601549 39
0.11980607 0.70984328 0.85870421 43
0.11973242 0.72168189 0.79868376 40
0.12294354 0.7402367 0.68743831 40
0.1238053 0.74462116 0.5795095 39
0.12315279 0.73989844 0.47919077 38
0.12661961 0.75990814 0.39957434 37
0.12791678 0.76686752 0.3184652 36
0.26347798 1.5795635 0.39550629 34
0.57083666 3.4185176 0.40409577 30
0.12285556 0.73258531 0.74274248 43
0.124235 0.74001908 0.62992519 41
0.12318418 0.73297626 0.52237725 40
0.12504931 0.74407423 0.43625253 38
0.12857865 0.76425856 0.35887495 37
0.12918518 0.76704544 0.27832383 36
0.57381397 3.4034307 0.57360196 35
0.58030641 3.438278 0.23433399 27
0.0086740218 0.051175289 4.3541079 2
nan nan nan 0
0.080986679 0.47730234 2.3509698 6
0.092953585 0.54725122 1.8217281 28
0.10300842 0.60580724 1.5072449 33
0.10897049 0.64019477 1.257376 34
0.11449952 0.67196858 1.0737789 37
0.11942796 0.7001543 0.92700839 39
nan nan nan 0
nan nan nan 0
0.08746323 0.51007307 2.0300398 17
0.098833725 0.57578087 1.6428828 32
0.10756366 0.62598401 1.377116 36
0.11346827 0.65965706 1.1650195 37
0.11806007 0.68563551 0.99601549 39
0.12228317 0.70942074 0.85870421 43
0.12225083 0.72125953 0.79868376 40
0.1255267 0.73980302 0.68743831 40
0.12640375 0.74418437 0.5795095 39
0.12573476 0.73946404 0.47919077 39
0.12927142 0.75946146 0.39957434 36
0.13059288 0.76641631 0.3184652 36
0.26816493 1.5737917 0.39457369 35
0.58192867 3.4115953 0.4036487 28
0.125412 0.73215204 0.74274248 43
0.12681739 0.73958087 0.62992519 41
0.12574199 0.7325418 0.52237725 40
0.12764585 0.74363315 0.43625253 39
0.13124564 0.76380515 0.35887495 37
0.1318619 0.76658988 0.27832383 36
0.58989233 3.4258082 0.57705534 34
0.59739655 3.4657714 0.23554316 26
0.0088451635 0.051101707 4.3491082 2
nan nan nan 0
0.082826123 0.47801998 2.355865 4
0.094863281 0.54692346 1.8217281 27
0.10512246 0.60544395 1.5072449 34
0.11120452 0.6398105 1.257376 34
0.11684444 0.67156482 1.0737789 37
0.12187123 0.69973314 0.92700839 39
nan nan nan 0
nan nan nan 0
0.089243181 0.50976467 2.0300398 17
0.10084298 0.57543236 1.6428828 32
0.1097481 0.62560475 1.377116 36
0.11577022 0.65925699 1.1650195 36
0.12097435 0.68818694 1.0000055 39
0.12475874 0.70898962 0.85870421 43
0.12476775 0.72082847 0.79868376 39
0.12810834 0.73936027 0.68743831 40
0.12900066 0.74373865 0.5795095 39
0.12831521 0.73902059 0.47919077 39
0.13192163 0.75900561 0.39957434 36
0.13326737 0.76595581 0.3184652 36
0.27365685 1.5728461 0.39457369 34
0.59639734 3.4242616 0.40498993 27
0.12796693 0.73170978 0.74274248 43
0.12939824 0.73913372 0.62992519 40
0.12829828 0.7320984 0.52237725 40
0.13024084 0.74318308 0.43625253 39
0.13472696 0.76799351 0.36051846 37
0.13537769 0.77091229 0.27949616 36
0.60184705 3.4237282 0.57705534 34
0.61208808 3.4784265 0.23614776 28
0.0090083033 0.050984584 4.3391085 2
nan nan nan 0
0.084494203 0.47772795 2.355865 4
0.096771821 0.54658896 1.8217281 27
0.10723521 0.60507327 1.5072449 34
0.1134372 0.63941848 1.257376 34
0.11918792 0.67115283 1.0737789 37
0.124313 0.69930351 0.92700839 39
nan nan nan 0
nan nan nan 0
0.091243125 0.51068735 2.0348792 16
0.10285099 0.57507682 1.6428828 32
0.1119312 0.62521785 1.377116 35
0.11807074 0.65884882 1.1650195 36
0.12337583 0.68776053 1.0000055 39
0.12783201 0.71188658 0.86237937 43
0.12728316 0.72038853 0.79868376 39
0.1306884 0.73890859 0.68743831 40
0.13159601 0.74328381 0.5795095 39
0.13089408 0.73856819 0.47919077 39
0.13457027 0.75854051 0.39957434 37
0.13594024 0.76548594 0.3184652 36
0.27828655 1.5670449 0.39364105 34
0.60486013 3.4025464 0.40320161 25
0.13052028 0.73125863 0.74274248 43
0.13197751 0.7386775 0.62992519 40
0.130853 0.73164606 0.52237725 40
0.13283423 0.74272388 0.43625253 39
0.13740693 0.76751858 0.36051846 37
0.13806784 0.77043504 0.27949616 35
0.62166381 3.4654746 0.5832715 34
0.6048007 3.368088 0.23171407 30
0.0091707353 0.05086695 4.3291092 2
nan nan nan 0
0.086342119 0.47843212 2.3607602 4
0.098679185 0.54624784 1.8217281 27
0.10934666 0.60469532 1.5072449 34
0.1156685 0.6390186 1.257376 34
0.12152997 0.67073274 1.0737789 36
0.12675329 0.69886523 0.92700839 39
nan nan nan 0
nan nan nan 0
0.093250602 0.5116024 2.0397186 16
0.10485776 0.57471436 1.6428828 31
0.11411294 0.62482333 1.377116 36
0.12083884 0.66099823 1.1692854 36
0.12577581 0.68732572 1.0000055 39
0.13031617 0.71143603 0.86237937 43
0.129797 0.71993983 0.79868376 40
0.13326688 0.73844796 0.68743831 40
0.1349331 0.74693477 0.58225095 39
0.13347137 0.73810679 0.47919077 39
0.13721724 0.75806612 0.39957434 37
0.13861147 0.76500678 0.3184652 36
0.28287908 1.5612303 0.39270842 35
0.60606897 3.341614 0.39783666 26
0.13307206 0.73079854 0.74274248 43
0.13455518 0.73821235 0.62992519 40
0.13340612 0.7311849 0.52237725 40
0.135426 0.74225569 0.43625253 39
0.14008524 0.76703423 0.36051846 37
0.14075632 0.76994842 0.27949616 35
0.63286543 3.4584126 0.5825808 35
0.59945101 3.2725873 0.22788498 33
0.0093324538 0.050748795 4.3191094 2
nan nan nan 0
0.088195957 0.4791292 2.3656554 3
0.10058534 0.54590005 1.8217281 26
0.11145677 0.60430992 1.5072449 34
0.11789838 0.63861096 1.257376 34
0.12387051 0.67030448 1.0737789 36
0.12977502 0.70157045 0.93084598 39
nan nan nan 0
nan nan nan 0
0.095265567 0.51250952 2.044558 16
0.10686325 0.57434481 1.6428828 31
0.11629327 0.62442118 1.377116 35
0.12314543 0.66057241 1.1692854 36
0.12817428 0.68688244 1.0000055 38
0.13279876 0.71097678 0.86237937 42
0.13295425 0.72298974 0.80218834 40
0.13584374 0.73797822 0.68743831 39
0.13753957 0.74645919 0.58225095 39
0.13604704 0.73763639 0.47919077 39
0.13986257 0.7575826 0.39957434 37
0.14128098 0.76451826 0.3184652 36
0.2874344 1.5554028 0.39177582 34
0.61501223 3.3247874 0.39649543 32
0.1356222 0.73032957 0.74274248 43
0.13713118 0.73773819 0.62992519 40
0.13595761 0.73071474 0.52237725 40
0.13884634 0.74624044 0.43835059 39
0.14276183 0.76654059 0.36051846 37
0.14344309 0.76945239 0.27949616 35
0.63312465 3.3928981 0.57360196 35
0.59252501 3.1722548 0.22385439 35
0.0094934609 0.050630141 4.3091092 3
nan nan nan 0
0.089867897 0.47881845 2.3656554 2
0.10249028 0.54554558 1.8217281 26
0.11356552 0.60391718 1.5072449 33
0.12012682 0.63819551 1.257376 34
0.12620956 0.66986799 1.0737789 37
0.13222317 0.70111316 0.93084598 38
nan nan nan 0
nan nan nan 0
0.097522028 0.51464385 2.0542369 15
0.10886744 0.57396829 1.6428828 30
0.1184722 0.6240114 1.377116 35
0.12545051 0.66013843 1.1692854 36
0.13057114 0.68643087 1.0000055 38
0.13527972 0.71050888 0.86237937 41
0.13547714 0.72252125 0.80218834 40
0.13841893 0.73749954 0.68743831 39
0.14014436 0.74597454 0.58225095 39
0.13862103 0.73715705 0.47919077 39
0.14250615 0.75708973 0.39957434 37
0.14394879 0.76402044 0.3184652 36
0.29104298 1.5447353 0.38991058 34
0.62199962 3.298152 0.39426005 37
0.13817072 0.72985172 0.74274248 41
0.13970554 0.73725492 0.62992519 40
0.13850747 0.7302357 0.52237725 40
0.14145036 0.7457512 0.43835059 39
0.14543669 0.76603752 0.36051846 37
0.1461281 0.76894695 0.27949616 35
0.63941187 3.3614781 0.56945789 36
0.54379094 2.8560698 0.21095639 12
0.0096619446 0.050553836 4.3041101 3
nan nan nan 0
0.091730058 0.4795019 2.3705506 2
0.10439397 0.54518455 1.8217281 26
0.11567289 0.60351712 1.5072449 34
0.12235381 0.63777226 1.257376 34
0.12854706 0.66942334 1.0737789 36
0.13466971 0.70064729 0.93084598 38
nan nan nan 0
nan nan nan 0
0.099794529 0.51676857 2.0639157 15
0.1108703 0.57358474 1.6428828 30
0.12064969 0.62359411 1.377116 35
0.12775406 0.65969658 1.1692854 36
0.13296644 0.6859709 1.0000055 38
0.13775903 0.71003234 0.86237937 43
0.1379984 0.72204393 0.80218834 40
0.14099243 0.73701191 0.68743831 40
0.14274745 0.74548084 0.58225095 39
0.14119335 0.73666871 0.47919077 39
0.14514802 0.75658768 0.39957434 38
0.14661485 0.76351333 0.3184652 36
0.29550698 1.5388858 0.38897794 35
nan nan nan 0
0.14071752 0.72936499 0.74274248 41
0.14227819 0.73676276 0.62992519 42
0.14187372 0.73398024 0.52491039 40
0.14405265 0.74525291 0.43835059 39
0.14810976 0.76552522 0.36051846 37
0.14881136 0.76843226 0.27949616 36
0.62664062 3.2328248 0.5515002 69
0.55756342 2.8737719 0.21176252 21
0.0098300111 0.050476976 4.2991099 3
nan nan nan 0
0.09359806 0.48017812 2.3754458 3
0.10629638 0.54481685 1.8217281 25
0.11777886 0.60310966 1.5072449 33
0.12457931 0.63734126 1.257376 34
0.13088302 0.66897053 1.0737789 36
0.1371146 0.70017296 0.93084598 39
nan nan nan 0
nan nan nan 0
0.10208306 0.51888376 2.0735946 14
0.11320521 0.57488739 1.6475756 30
0.1228257 0.62316918 1.377116 35
0.13005605 0.65924656 1.1692854 36
0.13536012 0.68550259 1.0000055 38
0.14023668 0.70954716 0.86237937 43
0.14051796 0.7215578 0.80218834 40
0.14356422 0.73651522 0.68743831 40
0.1453488 0.74497801 0.58225095 39
0.14461298 0.74051905 0.48150957 39
0.14778812 0.75607634 0.39957434 37
0.14927912 0.76299685 0.3184652 36
0.29899049 1.5282032 0.38711271 35
0.57036 2.9125319 0.35938787 25
0.14398274 0.73253304 0.746068 42
0.14484909 0.73626167 0.62992519 43
0.14443493 0.73348051 0.52491039 40
0.14665319 0.74474549 0.43835059 39
0.15078105 0.76500356 0.36051846 37
0.15149276 0.76790804 0.27949616 36
0.62161314 3.1480274 0.53975862 66
0.55499858 2.8080935 0.20914263 27
0.0099976584 0.050399557 4.2941103 3
nan nan nan 0
0.095471941 0.48084724 2.3803411 2
0.10848845 0.54590648 1.8265001 25
0.12026452 0.60461092 1.5118475 33
0.12680329 0.63690251 1.257376 34
0.13321735 0.66850954 1.0737789 36
0.13893086 0.69654673 0.92700839 39
nan nan nan 0
nan nan nan 0
0.10414063 0.51975673 2.078434 13
0.11521126 0.57448876 1.6475756 30
0.12500022 0.62273657 1.377116 35
0.13235645 0.65878862 1.1692854 36
0.13775215 0.68502587 1.0000055 38
0.14271259 0.70905334 0.86237937 42
0.14303581 0.7210629 0.80218834 39
0.14613427 0.73600966 0.68743831 41
0.14794835 0.74446607 0.58225095 39
0.14719699 0.74000973 0.48150957 39
0.15042643 0.75555587 0.39957434 37
0.15194157 0.76247114 0.3184652 36
0.30240306 1.5175152 0.38524747 35
0.56785983 2.8470345 0.35357583 25
0.14653888 0.73202598 0.746068 42
0.14662416 0.73178834 0.62698203 41
0.14699437 0.73297185 0.52491039 40
0.14925195 0.74422908 0.43835059 39
0.15345049 0.76447254 0.36051846 38
0.15417233 0.76737458 0.27949616 36
0.61209631 3.0438859 0.52525437 39
0.53719568 2.669003 0.20349976 17
0.010164886 0.050321579 4.2891102 5
nan nan nan 0
0.097553372 0.48250705 2.3901317 2
0.11039336 0.54552448 1.8265001 24
0.12237427 0.60418743 1.5118475 33
0.12902573 0.63645607 1.257376 33
0.13555008 0.66804051 1.0737789 36
0.14136142 0.69605744 0.92700839 38
nan nan nan 0
nan nan nan 0
0.10620554 0.52062172 2.0832736 12
0.11756112 0.57577389 1.6522684 30
0.12717322 0.62229651 1.377116 35
0.13465525 0.65832257 1.1692854 36
0.14014249 0.68454087 1.0000055 38
0.14518678 0.70855087 0.86237937 42
0.14555192 0.7205593 0.80218834 39
0.14870253 0.73549503 0.68743831 40
0.14971678 0.73984677 0.5795095 39
0.1497792 0.73949134 0.48150957 39
0.15306288 0.75502628 0.39957434 37
0.15555608 0.76663738 0.31987524 36
0.30574471 1.506822 0.38338223 35
0.54310441 2.6742225 0.33792809 18
0.14909324 0.73150998 0.746068 42
0.14836977 0.72731161 0.62403888 40
0.14955202 0.73245436 0.52491039 40
0.15184888 0.7437036 0.43835059 39
0.15611807 0.76393229 0.36051846 38
0.15685003 0.7668317 0.27949616 35
0.55617255 2.7166841 0.47897878 20
0.54350036 2.6524291 0.20289516 18
0.010331691 0.050243054 4.2841105 5
nan nan nan 0
0.099442303 0.48316091 2.3950267 2
0.11229692 0.5451358 1.8265001 23
0.12448253 0.60375655 1.5118475 33
0.13173062 0.63834739 1.261765 34
0.13788114 0.66756326 1.0737789 36
0.14379025 0.6955598 0.92700839 38
nan nan nan 0
nan nan nan 0
0.1080222 0.52024776 2.0832736 11
0.11957023 0.57536006 1.6522684 29
0.12934466 0.62184882 1.377116 35
0.1369524 0.65784854 1.1692854 36
0.14253113 0.68404746 1.0000055 38
0.1476592 0.70803976 0.86237937 42
0.14806625 0.72004676 0.80218834 39
0.15126899 0.73497152 0.68743831 39
0.15229841 0.73931962 0.5795095 39
0.1523596 0.73896402 0.48150957 39
0.15569748 0.75448734 0.39957434 37
0.15823118 0.76608974 0.31987524 36
0.30901542 1.4961243 0.38151699 35
0.54134595 2.6186652 0.3330102 18
0.15164578 0.73098505 0.746068 42
0.15008593 0.72283167 0.62109572 42
0.15210786 0.73192781 0.52491039 40
0.15536743 0.7476126 0.44044864 39
0.15878373 0.76338267 0.36051846 38
0.15952581 0.76627952 0.27949616 35
0.58686513 2.8165329 0.49348307 36
0.53949648 2.5869365 0.20027526 19
0.010498071 0.050163973 4.2791109 5
nan nan nan 0
0.10133699 0.48380744 2.3999221 2
0.11419912 0.54474056 1.8265001 23
0.12658928 0.60331839 1.5118475 33
0.13346584 0.63553977 1.257376 34
0.14021054 0.6670779 1.0737789 36
0.14621733 0.69505364 0.92700839 38
nan nan nan 0
nan nan nan 0
0.10983754 0.5198676 2.0832736 10
0.12157789 0.57493919 1.6522684 29
0.13151453 0.6213935 1.377116 35
0.13924789 0.65736645 1.1692854 35
0.14491804 0.68354583 1.0000055 38
0.15012982 0.70752001 0.86237937 42
0.15057878 0.71952552 0.80218834 39
0.1538336 0.73443896 0.68743831 39
0.1531623 0.73059863 0.57402658 40
0.15493815 0.73842776 0.48150957 39
0.15833019 0.75393927 0.39957434 37
0.16090438 0.76553273 0.31987524 36
0.31221518 1.4854221 0.37965176 35
0.53510571 2.5436602 0.32630402 17
0.15419647 0.73045129 0.746068 42
0.15093705 0.71439403 0.6152094 45
0.15466183 0.73139244 0.52491039 40
0.15797614 0.74706572 0.44044864 39
0.16144748 0.76282376 0.36051846 38
0.16219966 0.76571804 0.27949616 35
0.54739439 2.5819364 0.4603304 20
0.54852331 2.5850372 0.20027526 25
0.010664025 0.050084345 4.2741108 5
nan nan nan 0
0.10302518 0.48345074 2.3999221 2
0.11609992 0.54433858 1.8265001 22
0.12910235 0.60478348 1.5164499 32
0.13568348 0.63507003 1.257376 33
0.14253822 0.66658443 1.0737789 36
0.14864263 0.69453901 0.92700839 38
nan nan nan 0
nan nan nan 0
0.11165155 0.519481 2.0832736 9
0.12394696 0.57619834 1.6569612 29
0.13414097 0.62305886 1.3816172 35
0.14154169 0.65687644 1.1692854 35
0.14730316 0.68303585 1.0000055 38
0.15259862 0.70699161 0.86237937 40
0.15308948 0.71899557 0.80218834 39
0.15639634 0.73389751 0.68743831 40
0.15483941 0.72597009 0.57128513 39
0.1575148 0.73788238 0.48150957 39
0.16096097 0.75338197 0.39957434 37
0.1635756 0.76496637 0.31987524 36
0.31534395 1.4747159 0.37778652 35
0.53564388 2.5028191 0.32272738 17
0.15674528 0.72990859 0.746068 41
0.15173115 0.70595926 0.60932308 45
0.15630735 0.72663373 0.52237725 40
0.16058291 0.74650973 0.44044864 39
0.16410923 0.76225561 0.36051846 37
0.16487154 0.76514721 0.27949616 35
0.54805207 2.5412838 0.45480499 22
0.53435415 2.4756706 0.19584158 21
0.010829551 0.050004177 4.2691112 6
nan nan nan 0
0.1047121 0.4830882 2.3999221 3
0.11799931 0.54392999 1.8265001 19
0.13121264 0.60432917 1.5164499 32
0.13840802 0.63693285 1.261765 34
0.14486417 0.6660828 1.0737789 36
0.15106611 0.69401592 0.92700839 39
nan nan nan 0
nan nan nan 0
0.11346421 0.51908809 2.0832736 8
0.12595752 0.57576215 1.6569612 29
0.13631505 0.62258679 1.3816172 34
0.14383374 0.65637827 1.1692854 35
0.14968652 0.68251741 1.0000055 38
0.15506555 0.70645463 0.86237937 40
0.15559831 0.7184568 0.80218834 40
0.15813261 0.72954315 0.68429983 40
0.15559959 0.71725237 0.56580216 39
0.16008952 0.73732811 0.48150957 39
0.16358978 0.75281549 0.39957434 37
0.16624483 0.76439071 0.31987524 36
0.31944582 1.4688061 0.37685391 35
0.53272605 2.447408 0.31780952 18
0.15929218 0.72935694 0.746068 41
0.1524682 0.69752777 0.60343677 47
0.15884285 0.72608364 0.52237725 40
0.16318776 0.74594462 0.44044864 39
0.16676901 0.7616781 0.36051846 38
0.1675414 0.76456702 0.27949616 35
0.54206753 2.4716358 0.44513547 21
0.5279972 2.4054735 0.19302015 19
0.011004033 0.049966071 4.2691112 6
nan nan nan 0
0.10617859 0.48172539 2.3950267 3
0.12021881 0.54497242 1.8312721 19
0.13332134 0.60386741 1.5164499 32
0.1406305 0.63644588 1.261765 33
0.14718834 0.66557306 1.0737789 36
0.15348774 0.69348437 0.92700839 39
nan nan nan 0
nan nan nan 0
0.11527546 0.51868886 2.0832736 7
0.12834121 0.57700348 1.6616539 28
0.13848746 0.62210715 1.3816172 34
0.14612406 0.65587223 1.1692854 35
0.15206803 0.6819908 1.0000055 38
0.15753059 0.70590907 0.86237937 42
0.15810525 0.71790934 0.80218834 40
0.16067824 0.7289868 0.68429983 40
0.15630081 0.70853829 0.56031924 41
0.16266231 0.73676473 0.48150957 38
0.16621661 0.75223988 0.39957434 38
0.16891204 0.76380575 0.31987524 36
0.32351026 1.4628856 0.37592128 34
0.53265655 2.4066348 0.31423289 18
0.16264656 0.73244154 0.74939352 41
0.1540252 0.69304556 0.60049355 47
0.1604404 0.72131681 0.51984406 40
0.16579059 0.74537039 0.44044864 39
0.16942674 0.76109129 0.36051846 38
0.17020921 0.76397753 0.27949616 36
0.54530317 2.4455616 0.44168204 23
0.52442122 2.3499799 0.19080332 19
0.011168848 0.049884774 4.2641115 7
nan nan nan 0
0.10763685 0.48035824 2.3901317 4
0.1221204 0.54454952 1.8312721 18
0.13542841 0.60339838 1.5164499 32
0.14285125 0.6359511 1.261765 33
0.14951073 0.66505527 1.0737789 36
0.15590754 0.69294441 0.92700839 38
nan nan nan 0
nan nan nan 0
0.11708532 0.51828337 2.0832736 6
0.13035455 0.57655197 1.6616539 28
0.14065816 0.62161994 1.3816172 34
0.1484126 0.6553582 1.1692854 35
0.1544477 0.68145585 1.0000055 37
0.15999371 0.70535487 0.86237937 41
0.16061024 0.71735305 0.80218834 39
0.16237085 0.72462326 0.6811614 40
0.15785813 0.70390838 0.55757779 42
0.16523309 0.73619246 0.48150957 38
0.16884141 0.7516551 0.39957434 38
0.17157719 0.76321155 0.31987524 36
0.32645985 1.4521621 0.37405604 34
0.52902955 2.3513172 0.30931503 18
0.16520226 0.73186934 0.74939352 42
0.15555274 0.68856108 0.59755039 48
0.16200665 0.71654767 0.51731086 41
0.16839141 0.74478716 0.44044864 39
0.17208241 0.76049525 0.36051846 38
0.17287496 0.76337874 0.27949616 36
0.53960681 2.3808589 0.43270323 21
1.0045161 4.4285517 0.27685699 2
0.01134291 0.049845487 4.2641115 8
nan nan nan 0
0.10908686 0.4789868 2.3852363 5
0.1243522 0.54557526 1.8360441 18
0.13796835 0.60482669 1.5210525 32
0.14507025 0.63544858 1.261765 33
0.1518313 0.66452926 1.0737789 36
0.1590399 0.69552058 0.93084598 38
nan nan nan 0
nan nan nan 0
0.11889376 0.51787144 2.0832736 6
0.1323663 0.57609349 1.6616539 28
0.14282715 0.62112522 1.3816172 34
0.15069932 0.65483612 1.1692854 35
0.1568255 0.68091255 1.0000055 37
0.16245489 0.70479208 0.86237937 40
0.1631133 0.71678799 0.80218834 39
0.16403493 0.72025698 0.67802292 40
0.15845579 0.69519931 0.55209482 42
0.16780189 0.7356112 0.48150957 39
0.17146413 0.7510612 0.39957434 36
0.17424025 0.76260793 0.31987524 36
0.33043271 1.4462249 0.37312341 34
0.99902898 4.3689995 0.49529991 2
0.16775596 0.73128825 0.74939352 42
0.15705088 0.68407434 0.59460723 47
0.16354156 0.71177655 0.51477772 42
0.17099017 0.74419487 0.44044864 39
0.17473598 0.75988996 0.36051846 37
0.1755386 0.76277059 0.27949616 36
0.5379113 2.3355293 0.42648709 21
1.0255793 4.4493599 0.27786466 2
0.011507004 0.049763076 4.2591114 9
nan nan nan 0
0.1105286 0.47761115 2.3803411 6
0.12692946 0.54804635 1.845588 17
0.14007875 0.60434139 1.5210525 32
0.1472875 0.6349383 1.261765 31
0.15478638 0.6667363 1.0779117 35
0.16146676 0.69496125 0.93084598 38
nan nan nan 0
nan nan nan 0
0.12070074 0.51745331 2.0832736 5
0.13437644 0.57562792 1.6616539 27
0.14499442 0.62062281 1.3816172 33
0.1529842 0.65430611 1.1692854 35
0.15988789 0.68329501 1.0039955 37
0.16491409 0.70422071 0.86237937 40
0.16481093 0.71273977 0.79868376 39
0.16567051 0.71588784 0.67488444 41
0.15993807 0.69056839 0.54935336 43
0.17036861 0.735021 0.48150957 39
0.17408478 0.75045806 0.39957434 36
0.17690119 0.76199508 0.31987524 36
0.33325726 1.4354928 0.37125817 34
1.0165277 4.3751869 0.49619406 2
0.16946006 0.72706187 0.746068 41
0.1585196 0.67958564 0.59166414 47
0.16504514 0.70700336 0.51224452 43
0.17358685 0.74359345 0.44044864 39
0.17738743 0.75927538 0.36051846 37
0.17820008 0.76215327 0.27949616 36
0.53477764 2.2854192 0.41958031 22
0.52166188 2.2276151 0.18596655 19
0.011680639 0.049722604 4.2591114 9
nan nan nan 0
0.11172904 0.47524005 2.3705506 8
0.12918361 0.54905289 1.85036 16
0.14218745 0.60384876 1.5210525 32
0.15005229 0.63675147 1.2661541 31
0.15711278 0.666192 1.0779117 35
0.16389163 0.69439334 0.93084598 38
nan nan nan 0
nan nan nan 0
0.12221645 0.51580566 2.078434 5
0.13638493 0.57515532 1.6616539 27
0.14715992 0.6201129 1.3816172 33
0.15526721 0.65376806 1.1692854 35
0.16227207 0.6827327 1.0039955 37
0.16737126 0.70364082 0.86237937 40
0.16729786 0.71216011 0.79868376 39
0.16638684 0.70772719 0.66860753 42
