# .PCD v0.7 - Point Cloud Data file format
VERSION 0.7
FIELDS x y z intensity
SIZE 4 4 4 4
TYPE F F F F
COUNT 1 1 1 1
WIDTH 1342
HEIGHT 1
VIEWPOINT 0 0 0 1 0 0 0
POINTS 1342
DATA ascii
-0.39114633 -0.47331908 0.20804965 79
-0.19024706 -0.23013274 0.1197535 113
-0.78321803 -0.9460755 1.1750575 26
nan nan nan 0
-0.27615938 -0.33334529 0.33998835 61
-0.56531447 -0.68237746 0.49709606 36
-0.5427351 -0.65488964 0.38517112 36
-0.43750459 -0.52772605 0.25604981 40
-0.29075211 -0.350586 0.15574053 108
nan nan nan 0
-0.032053981 -0.0385818 4.1541157 19
-0.41358966 -0.49781755 4.1148262 32
-0.54438013 -0.655011 4.1181474 32
-0.8081609 -0.97205299 4.0884204 32
-1.0337988 -1.2430079 3.8683398 15
-1.0724709 -1.2890487 3.140291 17
-0.95810312 -1.1511762 2.2723341 18
-0.89538985 -1.0754435 1.7520717 15
-0.15785165 -0.18939222 4.102572 25
-0.28524938 -0.34212407 4.1112452 29
-0.6768654 -0.8115347 4.106153 31
-0.94693857 -1.1349391 4.0737357 32
-1.1128361 -1.3333 3.6547303 31
-1.0156962 -1.2164838 2.6623623 18
-0.93083525 -1.1144519 1.9975116 16
-0.86153764 -1.0311188 1.5349344 19
-0.82072443 -0.98786563 1.3418884 23
-0.73835516 -0.88840634 1.0138378 28
nan nan nan 0
-0.55327612 -0.66524231 0.53947961 36
-0.5579477 -0.67062104 0.44078106 35
-0.537242 -0.64550477 0.33679563 35
-0.40222335 -0.48327777 0.21084753 57
-0.19423561 -0.2332944 0.12020058 115
-0.79129773 -0.94907123 1.1817086 27
nan nan nan 0
-0.28560641 -0.34230927 0.34758788 60
-0.57350814 -0.68736959 0.50129217 36
-0.55409539 -0.66386718 0.39010161 36
-0.45180497 -0.54111999 0.26073909 39
-0.30149767 -0.36097109 0.15781257 108
nan nan nan 0
-0.032188464 -0.03846968 4.1541157 19
-0.41532487 -0.49637082 4.1148262 32
-0.54666322 -0.65310669 4.1181474 32
-0.81059074 -0.96808165 4.0836487 32
-1.0444037 -1.2468802 3.8913527 13
-1.0846548 -1.2944757 3.1622362 16
-0.9675386 -1.1542946 2.2847328 17
-0.90531671 -1.0796797 1.7635844 15
-0.15851177 -0.18884005 4.102572 25
-0.28644183 -0.34112626 4.1112452 29
-0.67969406 -0.80916709 4.106153 31
-0.95089447 -1.1316266 4.0737357 32
-1.1188842 -1.3310738 3.6592314 30
-1.0266503 -1.2209154 2.6794262 17
-0.94053882 -1.1181136 2.0094817 15
-0.86949712 -1.0332931 1.5422847 21
-0.82874483 -0.99046493 1.3488976 24
-0.74644846 -0.89179307 1.0201148 28
nan nan nan 0
-0.56412828 -0.6734947 0.54643595 37
-0.56624001 -0.67577618 0.44452715 35
-0.54257357 -0.64730197 0.33820567 35
-0.41337451 -0.49316478 0.21364537 57
-0.19824851 -0.23643094 0.12064766 115
-0.79940778 -0.95202214 1.1883595 27
nan nan nan 0
-0.29789245 -0.35451153 0.35772058 56
-0.58466321 -0.69578749 0.5075863 36
-0.56248629 -0.66915846 0.39338863 36
-0.46307579 -0.55070007 0.26425603 39
-0.30913135 -0.36749572 0.15919393 108
nan nan nan 0
-0.032350671 -0.03839045 4.1591153 19
-0.41705501 -0.49491802 4.1148262 32
-0.54893965 -0.65119451 4.1181474 32
-0.81396502 -0.96524626 4.0836487 32
-1.0537885 -1.2492001 3.9097626 13
-1.0953454 -1.2980032 3.1797926 16
-0.97700763 -1.1573613 2.2971318 15
-0.91114807 -1.078962 1.767422 15
-0.15916999 -0.18828559 4.102572 25
-0.2879751 -0.34053135 4.1162171 29
-0.68251443 -0.80678958 4.106153 31
-0.9559536 -1.1296178 4.0784287 32
-1.1235238 -1.3271601 3.6592314 29
-1.0359621 -1.2232949 2.6922238 16
-0.95027924 -1.121721 2.0214517 15
-0.87748241 -1.0354244 1.5496351 23
-0.83679324 -0.99302024 1.3559066 25
-0.75708294 -0.89811003 1.02953 29
nan nan nan 0
-0.57504463 -0.68167931 0.55339235 37
-0.57457513 -0.6808815 0.44827321 36
-0.55101848 -0.65273535 0.34102574 35
-0.4245995 -0.5029797 0.21644324 72
-0.20228563 -0.23954231 0.12109474 115
-0.80754811 -0.95492792 1.1950105 28
nan nan nan 0
-0.31305185 -0.36992273 0.37038651 57
-0.59295213 -0.70067132 0.51178247 37
-0.57092094 -0.67439914 0.39667565 36
-0.47441897 -0.56020808 0.267773 40
-0.32321617 -0.38152823 0.16195664 108
nan nan nan 0
-0.032512709 -0.038310558 4.164115 17
-0.41878006 -0.49345922 4.1148262 32
-0.55120939 -0.64927441 4.1181474 31
-0.81732947 -0.96239901 4.0836487 31
-1.0632023 -1.2514696 3.9281728 12
-1.1045225 -1.2996467 3.1929598 15
-0.98650968 -1.1603755 2.3095305 14
-0.91906178 -1.0806582 1.775097 16
-0.15982626 -0.18772884 4.102572 25
-0.28916201 -0.33952406 4.1162171 29
-0.68532646 -0.80440223 4.106153 31
-0.95989084 -1.126274 4.0784287 32
-1.1281495 -1.3232301 3.6592314 28
-1.0469954 -1.2276087 2.7092874 15
-0.96005625 -1.1252741 2.0334218 14
-0.8854931 -1.0375124 1.5569855 24
-0.84486955 -0.99553138 1.3629158 25
-0.7652514 -0.90139627 1.035807 29
nan nan nan 0
-0.586025 -0.68979573 0.56034881 37
-0.58295262 -0.68593675 0.45201927 36
-0.55950791 -0.65811753 0.34384581 36
-0.43589798 -0.51272213 0.21924108 71
-0.20957315 -0.24642189 0.1219889 115
-0.81571829 -0.95778835 1.2016616 28
nan nan nan 0
-0.325526 -0.38195124 0.38051921 51
-0.60128212 -0.70550573 0.51597857 36
-0.57939887 -0.67958903 0.39996269 36
-0.48583397 -0.56964332 0.27128994 40
-0.33740249 -0.39546674 0.16471937 106
nan nan nan 0
-0.032646239 -0.038196836 4.164115 17
-0.42049998 -0.49199444 4.1148262 31
-0.55413407 -0.64812028 4.1230421 31
-0.82068384 -0.95954019 4.0836487 31
-1.0739146 -1.2551731 3.9511855 11
-1.1152816 -1.3030615 3.2105162 14
-0.99604475 -1.1633376 2.3219295 12
-0.92491341 -1.0798779 1.7789344 17
-0.16048057 -0.18716981 4.102572 25
-0.29034543 -0.33851263 4.1162171 29
-0.6881302 -0.80200511 4.106153 31
-0.9638164 -1.1229166 4.0784287 31
-1.1327616 -1.3192842 3.6592314 28
-1.0563723 -1.2298819 2.7220855 13
-0.96790594 -1.126487 2.0414019 14
-0.89352894 -1.039557 1.5643358 25
-0.85297346 -0.99799812 1.3699248 26
-0.77598143 -0.90759498 1.0452224 30
nan nan nan 0
-0.59418893 -0.6944778 0.56498641 37
-0.59137243 -0.69094181 0.45576534 36
-0.56492168 -0.65980434 0.34525582 36
-0.45046431 -0.52612305 0.22297159 59
-0.21367158 -0.24947113 0.12243598 115
-0.82391828 -0.96060324 1.2083125 29
nan nan nan 0
-0.34931836 -0.40698144 0.40078461 54
-0.60965306 -0.71029031 0.52017468 37
-0.58791995 -0.68472791 0.40324971 37
-0.49732053 -0.57900566 0.27480689 39
-0.34846273 -0.40555468 0.16679141 103
-0.14311883 -0.16650853 0.10253277 110
-0.032807838 -0.038115714 4.1691151 17
-0.42221481 -0.49052358 4.1148262 31
-0.55639303 -0.646182 4.1230421 31
-0.82500249 -0.95780063 4.0884204 31
-1.0833907 -1.2573369 3.9695954 11
-1.1245142 -1.3046026 3.2236834 12
-1.0056124 -1.1662472 2.3343282 11
-0.93286425 -1.0814968 1.7866094 18
-0.16113295 -0.18660848 4.102572 24
-0.29152527 -0.33749706 4.1162171 29
-0.69174743 -0.80054933 4.1109924 30
-0.96773028 -1.1195453 4.0784287 31
-1.13736 -1.315322 3.6592314 26
-1.0657775 -1.2321044 2.7348833 11
-0.97380382 -1.1253802 2.0453918 15
-0.89937091 -1.0389949 1.5680109 26
-0.85877836 -0.99771744 1.3734293 26
-0.78422421 -0.91077983 1.0514992 30
nan nan nan 0
-0.60528427 -0.70246708 0.57194281 37
-0.59983414 -0.69589621 0.4595114 36
-0.57348663 -0.66509438 0.3480759 37
-0.46192157 -0.53570807 0.22576943 59
-0.22104648 -0.25626564 0.12333014 115
-0.8321479 -0.96337271 1.2149636 29
nan nan nan 0
-0.34227982 -0.39597577 0.39318508 55
-0.61806458 -0.71502501 0.52437073 37
-0.59648389 -0.6898154 0.40653673 37
-0.50887829 -0.58829457 0.27832383 39
-0.36283767 -0.41931477 0.16955413 104
-0.14696889 -0.16978526 0.1027343 113
-0.032940686 -0.03800096 4.1691151 17
-0.42392445 -0.48904678 4.1148262 31
-0.55864531 -0.64423591 4.1230421 31
-0.82834083 -0.95491505 4.0884204 30
-1.0928947 -1.2594497 3.9880056 11
-1.1353414 -1.307904 3.2412398 10
-1.0133673 -1.1669794 2.3425941 10
-0.93873578 -1.0806537 1.790447 20
-0.16178334 -0.18604487 4.102572 24
-0.29235172 -0.33607519 4.1112452 29
-0.69453764 -0.7981298 4.1109924 30
-0.97163224 -1.1161604 4.0784287 30
-1.1419444 -1.3113438 3.6592314 25
-1.0769242 -1.2362427 2.7519469 10
-0.97970599 -1.1242459 2.049382 15
-0.90744758 -1.0409601 1.5753613 26
-0.86692768 -1.0001032 1.3804384 27
-0.79504865 -0.91685885 1.0609146 30
nan nan nan 0
-0.61644256 -0.71038723 0.57889915 38
-0.61137664 -0.70430082 0.46513048 36
-0.58209515 -0.67033255 0.35089594 36
-0.47667179 -0.5489285 0.22949991 56
-0.22520551 -0.25925207 0.12377721 115
-0.8428573 -0.9689132 1.2249401 29
nan nan nan 0
-0.38045523 -0.43704715 0.42611641 51
-0.62651658 -0.71970963 0.52856684 37
-0.60509038 -0.6948514 0.40982375 37
-0.52050674 -0.59750968 0.28184077 39
-0.37731281 -0.43297926 0.17231685 102
-0.15084355 -0.17303711 0.10293583 114
-0.033101831 -0.03791862 4.1741147 16
-0.42562896 -0.48756406 4.1148262 31
-0.56156045 -0.64304888 4.1279373 31
-0.83166903 -0.95201772 4.0884204 30
-1.1011409 -1.2600404 4.0018129 11
-1.1462049 -1.3111454 3.2587962 9
-1.0211396 -1.1676716 2.3508601 10
-0.9467231 -1.0821952 1.7981219 21
-0.16243178 -0.18547903 4.102572 24
-0.29352301 -0.33505267 4.1112452 28
-0.69731939 -0.79570061 4.1109924 29
-0.97552252 -1.1127621 4.0784287 29
-1.1465149 -1.3073496 3.6592314 23
-1.0863928 -1.2383575 2.7647448 8
-0.9856118 -1.1230838 2.0533719 17
-0.91554898 -1.0428816 1.5827116 27
-0.87275875 -0.99975759 1.383943 28
-0.80336475 -0.91994154 1.0671916 30
nan nan nan 0
-0.62474841 -0.71490228 0.58353674 38
-0.61993378 -0.70914304 0.46887657 36
-0.5907473 -0.67551863 0.35371602 36
-0.48828623 -0.5583545 0.23229778 53
-0.23266701 -0.26596069 0.12467137 116
-0.85115498 -0.97158211 1.231591 30
nan nan nan 0
-0.44733861 -0.51027161 0.48437953 45
-0.63201696 -0.72093099 0.53066492 37
-0.6106258 -0.69628531 0.41146725 37
-0.53541118 -0.61030465 0.28653008 39
-0.39188755 -0.4465476 0.17507955 100
-0.15144664 -0.17250954 0.10293583 115
-0.033262797 -0.037835605 4.1791148 16
-0.42732832 -0.48607534 4.1148262 31
-0.56380165 -0.64108479 4.1279373 31
-0.83498716 -0.9491089 4.0884204 30
-1.1106955 -1.2620553 4.0202231 11
-1.1571052 -1.314327 3.2763524 7
-1.0289289 -1.1683236 2.3591259 10
-0.95473254 -1.0836939 1.805797 23
-0.16307823 -0.18491089 4.102572 24
-0.29433814 -0.33362627 4.1062737 28
-0.70092428 -0.79420394 4.1158319 30
-0.97940075 -1.1093501 4.0784287 29
-1.1510712 -1.3033397 3.6592314 22
-1.095889 -1.2404212 2.7775426 7
-0.99351698 -1.1241523 2.061352 18
-0.9236747 -1.0447592 1.5900619 28
-0.8809526 -1.0020617 1.390952 28
-0.80914146 -0.9200545 1.07033 30
nan nan nan 0
-0.63601983 -0.72269326 0.59049314 38
-0.62853205 -0.71393394 0.47262263 37
-0.59944266 -0.68065244 0.35653609 37
-0.49997202 -0.56770593 0.23509565 50
-0.24347 -0.27635694 0.12601261 115
-0.85948163 -0.97420484 1.238242 31
nan nan nan 0
-0.52900213 -0.59919149 0.55530858 42
-0.64053702 -0.72552508 0.53486103 38
-0.61930436 -0.70122838 0.41475427 37
-0.54719287 -0.61935985 0.29004702 39
-0.40328211 -0.45630878 0.17715161 100
-0.15535699 -0.17572272 0.10313736 120
-0.033423591 -0.037751935 4.184114 16
-0.42902246 -0.48458073 4.1148262 30
-0.56603605 -0.63911277 4.1279373 31
-0.83829504 -0.94618839 4.0884204 29
-1.1189814 -1.2625567 4.0340309 11
-1.1680413 -1.3174481 3.2939088 6
-1.0367352 -1.1689353 2.3673918 10
-0.96276391 -1.0851499 1.8134719 24
-0.16372269 -0.18434052 4.102572 24
-0.29550093 -0.33259684 4.1062737 28
-0.70369232 -0.79175246 4.1158319 29
-0.98326725 -1.1059246 4.0784287 28
-1.1556138 -1.2993137 3.6592314 20
-1.105413 -1.2424337 2.7903402 7
-0.99943835 -1.1229284 2.0653422 19
-0.93182462 -1.0465925 1.5974122 28
-0.88680917 -1.0016507 1.3944566 28
-0.81750941 -0.92305207 1.0766069 31
nan nan nan 0
-0.64441496 -0.72709906 0.59513074 38
-0.63717133 -0.71867335 0.4763687 37
-0.60818094 -0.68573362 0.35935616 36
-0.511729 -0.5769825 0.23789349 50
-0.25104323 -0.28295571 0.12690677 115
-0.86783689 -0.97678131 1.2448931 31
nan nan nan 0
-0.5339548 -0.60056287 0.55784172 44
-0.64909697 -0.73006833 0.53905714 38
-0.62802482 -0.70611936 0.41804126 37
-0.55904418 -0.62834018 0.29356396 39
-0.41804177 -0.46969479 0.17991433 97
-0.15929157 -0.17891067 0.10333889 120
-0.033584204 -0.037667606 4.1891141 16
-0.43071133 -0.48308021 4.1148262 30
-0.56826353 -0.63713306 4.1279373 30
-0.84159273 -0.9432565 4.0884204 29
-1.1272845 -1.2630157 4.0478387 13
-1.1790134 -1.3205091 3.311465 5
-1.0464329 -1.1716056 2.3797905 10
-0.97081703 -1.086563 1.821147 24
-0.16436517 -0.1837679 4.102572 23
-0.29666013 -0.33156332 4.1062737 28
-0.70645183 -0.78929132 4.1158319 28
-0.98712158 -1.1024855 4.0784287 28
-1.1615947 -1.2968936 3.6637325 18
-1.1149642 -1.2443947 2.8031383 7
-1.0073744 -1.1239204 2.0733221 21
-0.93999875 -1.0483818 1.6047627 29
-0.89504677 -1.0038729 1.4014658 29
-0.82331729 -0.92309755 1.0797454 31
nan nan nan 0
-0.6528486 -0.73145509 0.5997684 37
-0.64585114 -0.72336102 0.48011476 37
-0.61696196 -0.69076204 0.36217621 36
-0.52355671 -0.58618379 0.24069136 51
-0.26198348 -0.29321852 0.12824801 115
-0.87622052 -0.97931123 1.2515441 31
nan nan nan 0
-0.57342982 -0.64044601 0.59077305 43
-0.65466887 -0.73117936 0.54115516 38
-0.63678694 -0.71095783 0.42132831 37
-0.57096487 -0.63724524 0.29708093 38
-0.43289962 -0.48298311 0.18267705 96
-0.16325028 -0.18207324 0.10354042 123
-0.033773787 -0.037615079 4.1991138 16
-0.43239495 -0.48157382 4.1148262 30
-0.5704841 -0.6351456 4.1279373 30
-0.84488028 -0.94031298 4.0884204 29
-1.1342983 -1.261979 4.0570436 14
-1.191622 -1.3252901 3.3334103 5
-1.0561616 -1.1742224 2.3921895 12
-0.97889167 -1.0879329 1.828822 25
-0.16500564 -0.18319303 4.102572 23
-0.29781571 -0.33052576 4.1062737 28
-0.70920259 -0.78682047 4.1158319 28
-0.99211961 -1.1003147 4.0831213 27
-1.1675727 -1.2944475 3.6682339 17
-1.1227956 -1.2443678 2.8116701 7
-1.0173484 -1.1271076 2.0852921 22
-0.94819647 -1.0501267 1.612113 29
-0.90331072 -1.0060495 1.4084748 29
-0.83173633 -0.92600954 1.0860223 31
nan nan nan 0
-0.66132039 -0.73576093 0.604406 37
-0.65457153 -0.72799689 0.48386082 37
-0.62578535 -0.69573742 0.36499628 36
-0.53545475 -0.59530938 0.24348921 48
-0.27632922 -0.30711025 0.13003632 114
-0.88213295 -0.97902048 1.2548696 31
nan nan nan 0
-0.58432215 -0.64804512 0.59837258 43
-0.66329557 -0.73563099 0.54535127 37
-0.64559036 -0.71574372 0.42461532 37
-0.58295423 -0.64607453 0.30059788 38
-0.4478552 -0.49617323 0.18543977 97
-0.16723296 -0.18521032 0.10374195 125
-0.033963405 -0.037561685 4.2091131 16
-0.43407333 -0.48006156 4.1148262 30
-0.57269764 -0.6331504 4.1279373 30
-0.84815735 -0.93735814 4.0884204 28
-1.1400076 -1.2594603 4.061646 15
-1.2026712 -1.3282239 3.3509667 4
-1.0659215 -1.1767853 2.4045882 14
-0.98483551 -1.0868845 1.8326594 26
-0.16564411 -0.18261594 4.102572 23
-0.29932582 -0.32987896 4.1112452 28
-0.71194482 -0.78434014 4.1158319 28
-0.99595439 -1.096845 4.0831213 27
-1.1764752 -1.2951982 3.6817374 16
-1.1323938 -1.2462316 2.8244677 7
-1.0253301 -1.1280091 2.0932722 23
-0.95641786 -1.051827 1.6194633 29
-0.91160047 -1.0081807 1.415484 29
-0.84018564 -0.92887384 1.0922992 32
nan nan nan 0
-0.6668573 -0.73673224 0.6067248 37
-0.66333199 -0.73258048 0.48760688 36
-0.63465101 -0.70065945 0.36781636 37
-0.55072051 -0.60799962 0.24721971 45
-0.28743115 -0.31721488 0.13137756 114
-0.89056301 -0.98146558 1.2615205 32
nan nan nan 0
-0.60396796 -0.66515017 0.61357164 44
-0.66891032 -0.73667127 0.54744929 38
-0.65443492 -0.72047669 0.42790234 37
-0.59501219 -0.65482771 0.30411482 38
-0.46623892 -0.5129292 0.18889317 92
-0.17460051 -0.19201809 0.10414501 127
-0.034123693 -0.037475161 4.2141132 16
-0.43574643 -0.47854343 4.1148262 30
-0.57490426 -0.63114744 4.1279373 30
-0.85142422 -0.93439174 4.0884204 28
-1.1470292 -1.2583609 4.0708508 16
-1.2121413 -1.3293269 3.3641338 4
-1.0757121 -1.1792946 2.4169872 15
-0.99294442 -1.0881757 1.8403344 26
-0.16647524 -0.18224978 4.107564 23
-0.30047548 -0.32883209 4.1112452 27
-0.71467835 -0.78185016 4.1158319 27
-0.99977708 -1.0933616 4.0831213 26
-1.1824584 -1.29269 3.6862388 15
-1.142019 -1.2480434 2.8372657 8
-1.0353651 -1.1310914 2.1052423 24
-0.96237302 -1.0509822 1.6231384 29
-0.92231739 -1.0129031 1.4259976 30
-0.84866506 -0.93169034 1.0985761 32
-0.7449789 -0.81757385 0.80979264 34
-0.67539328 -0.7409476 0.6113624 38
-0.67213243 -0.73711181 0.49135295 36
-0.64355856 -0.70552814 0.3706364 37
-0.56608129 -0.62059039 0.25095019 39
-0.30532029 -0.33460292 0.13361296 113
-0.89902079 -0.98386365 1.2681715 32
nan nan nan 0
-0.62083113 -0.67894435 0.62623751 44
-0.67454046 -0.73768115 0.54954737 38
-0.660133 -0.72167224 0.42954585 37
-0.60713816 -0.66350454 0.30763176 38
-0.48474476 -0.52956259 0.19234657 80
-0.17864366 -0.19509202 0.10434654 127
-0.034313276 -0.037420139 4.224113 16
-0.43741417 -0.47701946 4.1148262 30
-0.57710391 -0.6291368 4.1279373 30
-0.85468066 -0.93141413 4.0884204 27
-1.1527358 -1.2557887 4.0754533 16
-1.2232537 -1.3321439 3.3816903 4
-1.085533 -1.1817497 2.4293861 17
-1.0010742 -1.0894232 1.8480093 27
-0.1671104 -0.18166755 4.107564 22
-0.3016215 -0.32778123 4.1112452 27
-0.71740305 -0.77935076 4.1158319 27
-1.0035875 -1.0898652 4.0831213 24
-1.1899134 -1.291757 3.6952412 14
-1.1516707 -1.2498033 2.8500636 9
-1.0454339 -1.1341169 2.1172123 25
-0.97063214 -1.052601 1.6304888 30
-0.93066788 -1.0149344 1.4330066 31
-0.8571744 -0.93445903 1.104853 32
-0.75913662 -0.82729208 0.82075846 34
-0.6839667 -0.7451123 0.616 38
-0.67783684 -0.73817575 0.49322596 37
-0.65250766 -0.71034294 0.37345648 36
-0.57821333 -0.62946349 0.25374803 39
-0.3233341 -0.3518697 0.13584834 112
-0.90750617 -0.98621452 1.2748226 32
nan nan nan 0
-0.63779771 -0.69262874 0.63890344 43
-0.68326002 -0.74199945 0.55374354 38
-0.66904682 -0.72630996 0.43283287 38
-0.61603814 -0.66853005 0.3099764 37
-0.50337219 -0.54607272 0.19579996 75
-0.18609706 -0.20181277 0.10474961 126
-0.03450289 -0.037364248 4.2341123 15
-0.43907663 -0.47548968 4.1148262 29
-0.57929653 -0.62711841 4.1279373 29
-0.85792667 -0.92842495 4.0884204 26
-1.1597645 -1.2546264 4.0846586 16
-1.2327744 -1.3331411 3.3948576 4
-1.0934732 -1.1820848 2.4376521 17
-1.0114018 -1.0929798 1.859522 27
-0.1677435 -0.18108313 4.107564 22
-0.30276382 -0.32672638 4.1112452 27
-0.72011918 -0.77684182 4.1158319 27
-1.0073856 -1.0863553 4.0831213 23
-1.1929348 -1.2859994 3.6907399 12
-1.1631223 -1.2534224 2.8671272 11
-1.0534863 -1.1348774 2.1251922 26
-0.9789142 -1.0541749 1.6378391 30
-0.93904382 -1.0169196 1.4400158 31
-0.8657133 -0.93717945 1.11113 32
-0.77904665 -0.84306312 0.83720732 34
-0.68957043 -0.74597317 0.6183188 38
-0.68670434 -0.7426126 0.49697202 37
-0.66149825 -0.71510386 0.37627655 36
-0.59374982 -0.64186537 0.25747854 39
-0.341472 -0.36901456 0.13808374 109
-0.913481 -0.98577935 1.2781481 32
nan nan nan 0
-0.65486729 -0.70620281 0.65156937 42
-0.68893188 -0.74293774 0.55584157 39
-0.67478949 -0.72743207 0.43447638 38
-0.62498051 -0.67350149 0.31232107 37
-0.52212071 -0.56245917 0.19925337 68
-0.19019996 -0.20482287 0.10495114 126
-0.03466282 -0.037275538 4.2391124 15
-0.44073373 -0.47395414 4.1148262 29
-0.58148199 -0.62509257 4.1279373 29
-0.86014539 -0.92433184 4.0836487 26
-1.1654681 -1.2520005 4.0892611 15
-1.2423167 -1.334088 3.4080248 5
-1.101429 -1.1823788 2.4459178 17
-1.0195811 -1.0941325 1.8671969 28
-0.1683746 -0.18049648 4.107564 22
-0.30426615 -0.32605729 4.1162171 26
-0.72282648 -0.77432334 4.1158319 26
-1.0111717 -1.0828323 4.0831213 22
-1.1959302 -1.2802367 3.6862388 12
-1.1728324 -1.2550713 2.879925 13
-1.0636146 -1.137797 2.1371624 26
-0.9872191 -1.0557039 1.6451894 30
-0.94744492 -1.0188588 1.4470248 31
-0.87428147 -0.9398517 1.1174068 32
-0.79622746 -0.85564411 0.85091466 35
-0.69820666 -0.75004625 0.6229564 38
-0.69245166 -0.74360377 0.49884507 37
-0.66726011 -0.71630049 0.37768659 37
-0.60603154 -0.65057194 0.26027638 37
-0.36312836 -0.38968018 0.14076622 109
-0.92201126 -0.98804438 1.284799 33
nan nan nan 0
-0.66909707 -0.71651536 0.6617021 42
-0.69771618 -0.74716264 0.56003767 39
-0.68054813 -0.72852296 0.43611988 38
-0.6339649 -0.67841852 0.31466568 37
-0.54098946 -0.57872105 0.20270675 57
-0.19773839 -0.21145579 0.1053542 125
-0.034822546 -0.037186164 4.2441125 15
-0.44291654 -0.47297999 4.1197653 29
-0.58366048 -0.62305897 4.1279373 28
-0.8633666 -0.92132372 4.0836487 25
-1.1711675 -1.2493498 4.0938635 15
-1.2535192 -1.3367313 3.425581 6
-1.1094 -1.1826315 2.4541838 19
-1.0277808 -1.0952413 1.874872 28
-0.16900362 -0.17990765 4.107564 21
-0.30540246 -0.32499322 4.1162171 27
-0.72552496 -0.77179551 4.1158319 25
-1.0149451 -1.0792961 4.0831213 20
-1.1989002 -1.2744688 3.6817374 11
-1.1843555 -1.2585669 2.8969886 15
-1.0717106 -1.1384655 2.1451426 26
-0.99554646 -1.0571876 1.6525397 31
-0.95587081 -1.0207516 1.4540339 32
-0.88287896 -0.94247544 1.1236838 33
-0.80778682 -0.86201292 0.85913903 35
-0.70687979 -0.75406814 0.62759399 38
-0.69821429 -0.74456376 0.50071812 37
-0.67303848 -0.71746558 0.37909663 37
-0.6183812 -0.65920043 0.26307425 37
-0.38834071 -0.41383031 0.14389578 107
-0.93056828 -0.99026179 1.29145 33
nan nan nan 0
-0.68340665 -0.7267369 0.67183477 41
-0.70653832 -0.75133514 0.56423378 39
-0.68632251 -0.72958249 0.43776339 38
-0.64632231 -0.68682069 0.31818265 37
-0.55658364 -0.59125227 0.20546949 58
-0.20532539 -0.21803847 0.10575726 125
-0.034952134 -0.037064381 4.2441125 15
-0.44456485 -0.47143099 4.1197653 29
-0.58583176 -0.62101787 4.1279373 28
-0.86657739 -0.91830444 4.0836487 24
-1.1755214 -1.2452542 4.0938635 13
-1.2631108 -1.3375715 3.4387484 8
-1.1173863 -1.182843 2.4624498 20
-1.038202 -1.098636 1.8863846 28
-0.16963059 -0.17931662 4.107564 21
-0.30653504 -0.32392517 4.1162171 26
-0.72821462 -0.7692582 4.1158319 24
-1.0198932 -1.0769998 4.0878143 18
-1.2033417 -1.2702761 3.6817374 11
-1.1941231 -1.2601042 2.9097865 16
-1.0798242 -1.1390913 2.1531224 27
-1.0038962 -1.0586259 1.6598901 31
-0.96432149 -1.0225979 1.461043 32
-0.8888343 -0.9422192 1.1268222 33
-0.82227027 -0.87135255 0.87010491 35
-0.7155894 -0.75803864 0.63223153 38
-0.70717496 -0.74886322 0.50446421 37
-0.68212712 -0.72208619 0.38191667 37
-0.62742501 -0.66417968 0.26493949 38
-0.41030535 -0.43418932 0.14657825 103
-0.93915194 -0.99243134 1.2981011 34
nan nan nan 0
-0.69779557 -0.73686713 0.6819675 40
-0.71227729 -0.75215971 0.5663318 39
-0.69536012 -0.73403865 0.44105041 37
-0.65540254 -0.69161659 0.32052726 37
-0.5722717 -0.60368133 0.20823221 57
-0.21296065 -0.22457068 0.10616032 125
-0.035111349 -0.036973789 4.2491117 12
-0.44620773 -0.46987629 4.1197653 29
-0.58799595 -0.61896914 4.1279373 28
-0.87080586 -0.91635597 4.0884204 22
-1.1812069 -1.2425591 4.0984664 11
-1.2743738 -1.3400965 3.4563046 8
-1.1273268 -1.1850518 2.4748485 21
-1.0464499 -1.099649 1.8940595 29
-0.17045461 -0.17893246 4.1125555 20
-0.30766389 -0.32285321 4.1162171 26
-0.7308954 -0.76671159 4.1158319 24
-1.0248373 -1.0746819 4.0925069 17
-1.2062659 -1.2644926 3.6772363 11
-1.2039161 -1.2615885 2.9225843 17
-1.0879551 -1.1396742 2.1611025 27
-1.0122681 -1.0600188 1.6672404 31
-0.97034097 -1.0218116 1.4645475 32
-0.89747936 -0.94475484 1.1330991 33
-0.83682847 -0.88060129 0.88107073 35
-0.72433519 -0.76195735 0.63686913 38
-0.71297938 -0.74974954 0.50633723 37
-0.68794978 -0.72317642 0.38332671 37
-0.63651097 -0.66910368 0.26680472 37
-0.4358497 -0.45800734 0.14970779 103
-0.94776219 -0.99455303 1.304752 34
nan nan nan 0
-0.70928842 -0.7437858 0.68956703 40
-0.7211628 -0.75623775 0.57052791 39
-0.70117772 -0.73502374 0.44269392 38
-0.66452408 -0.69635749 0.32287189 37
-0.58805311 -0.61600792 0.21099493 53
-0.22064394 -0.23105213 0.10656338 124
-0.035240196 -0.036851004 4.2491117 12
-0.44784519 -0.4683159 4.1197653 28
-0.59015298 -0.61691284 4.1279373 27
-0.87399924 -0.91331071 4.0884204 21
-1.1855371 -1.2384284 4.0984664 11
-1.2856696 -1.3425589 3.473861 9
-1.1372966 -1.1872057 2.4872472 22
-1.0547173 -1.100618 1.9017346 30
-0.17107816 -0.17833635 4.1125555 20
-0.30915803 -0.32216185 4.1211882 26
-0.73269695 -0.76324898 4.1109924 23
-1.0297776 -1.0723426 4.0971999 16
-1.2121806 -1.2618442 3.6817374 11
-1.2137338 -1.2630199 2.9353821 17
-1.0981914 -1.1423864 2.1730726 28
-1.0183121 -1.0589224 1.6709156 32
-0.97883129 -1.023573 1.4715567 32
-0.90615284 -0.94724143 1.139376 33
-0.84857023 -0.88673788 0.88929516 36
-0.73005378 -0.7626242 0.63918793 38
-0.71879846 -0.75060451 0.5082103 37
-0.69378841 -0.72423464 0.38473675 37
-0.64563906 -0.67397225 0.26866996 37
-0.46501052 -0.48524752 0.15328443 97
-0.9538132 -0.99393266 1.3080775 34
nan nan nan 0
-0.72083801 -0.75063324 0.69716656 40
-0.72694176 -0.7569893 0.57262599 39
-0.71028191 -0.73938251 0.44598091 38
-0.67031866 -0.69753826 0.32404423 37
-0.60392743 -0.62823153 0.21375765 47
-0.2318379 -0.24108364 0.10716797 124
-0.035368618 -0.036727767 4.2491117 12
-0.44947723 -0.46674979 4.1197653 27
-0.5923028 -0.61484909 4.1279373 27
-0.87821782 -0.91132921 4.0931926 20
-1.1898528 -1.2342826 4.0984664 10
-1.2953358 -1.343235 3.4870281 9
-1.1472949 -1.1893045 2.4996462 22
-1.0630043 -1.1015425 1.9094095 30
-0.1719002 -0.17794572 4.117547 20
-0.31028071 -0.32108074 4.1211882 26
-0.73535669 -0.7606867 4.1109924 22
-1.0347141 -1.0699822 4.1018925 15
-1.2165778 -1.2576052 3.6817374 13
-1.2235762 -1.264398 2.94818 17
-1.106364 -1.1428761 2.1810527 28
-1.026719 -1.0602322 1.6782659 32
-0.98734576 -1.0252876 1.4785657 32
-0.91485465 -0.94967896 1.1456529 34
-0.86326641 -0.89581412 0.90026098 36
-0.73886025 -0.76644963 0.64382553 38
-0.72785038 -0.75476491 0.51195633 37
-0.70297325 -0.72871333 0.38755679 37
-0.6548087 -0.67878515 0.2705352 37
-0.49090841 -0.50870585 0.15641399 97
-0.96246624 -0.99596709 1.3147285 34
nan nan nan 0
-0.73544049 -0.76050782 0.70729923 40
-0.73273468 -0.75770974 0.57472402 39
-0.71942502 -0.74368662 0.44926792 38
-0.67950976 -0.70217997 0.32638884 37
-0.61644977 -0.63679367 0.2158297 45
-0.239629 -0.24745077 0.10757104 122
-0.035496607 -0.03660408 4.2491117 12
-0.45110375 -0.46517795 4.1197653 27
-0.59444541 -0.61277783 4.1279373 26
-0.88139361 -0.90825808 4.0931926 18
-1.194154 -1.2301217 4.0984664 10
-1.3066906 -1.3455777 3.5045846 10
-1.1592826 -1.1933662 2.5161779 23
-1.0713105 -1.1024226 1.9170846 30
-0.17252031 -0.17734461 4.117547 20
-0.31139961 -0.3199957 4.1211882 25
-0.73800749 -0.75811523 4.1109924 21
-1.0384427 -1.0663637 4.1018925 14
-1.2209603 -1.2533509 3.6817374 15
-1.2334428 -1.2657226 2.9609778 18
-1.1145535 -1.1433225 2.1890328 29
-1.0351473 -1.0614961 1.6856163 32
-0.99588412 -1.0269552 1.4855748 33
-0.9235844 -0.95206726 1.1519299 33
-0.87512416 -0.90179753 0.90848547 36
-0.74461669 -0.76704431 0.64614433 39
-0.73371023 -0.75554544 0.51382935 37
-0.70885527 -0.72969592 0.38896683 37
-0.6640197 -0.68354213 0.27240044 37
-0.51697546 -0.53198904 0.15954354 88
-0.97114491 -0.99795312 1.3213795 34
nan nan nan 0
-0.74711329 -0.76720119 0.71489882 42
-0.74170786 -0.76165044 0.57892013 39
-0.7253117 -0.74455333 0.45091143 38
-0.68874133 -0.70676595 0.3287335 37
-0.62903905 -0.64527589 0.21790174 42
-0.25444326 -0.26091987 0.10837716 121
-0.035624161 -0.036479954 4.2491117 11
-0.45272475 -0.46360046 4.1197653 27
-0.5965808 -0.61069912 4.1279373 24
-0.88664508 -0.90731096 4.1027365 18
-1.1984407 -1.2259458 4.0984664 9
-1.319752 -1.34957 3.5265298 10
-1.1693445 -1.1953468 2.5285769 24
-1.0796356 -1.1032579 1.9247596 31
-0.17334032 -0.17694753 4.1225386 20
-0.31251472 -0.31890675 4.1211882 25
-0.74064928 -0.75553447 4.1109924 21
-1.0421587 -1.0627323 4.1018925 13
-1.2238033 -1.2475274 3.6772363 16
-1.2433337 -1.2669938 2.9737756 17
-1.1248702 -1.145876 2.2010028 29
-1.0435972 -1.062714 1.6929666 32
-1.004446 -1.0285757 1.492584 33
-0.93234193 -0.95440608 1.1582067 34
-0.88703412 -0.90770912 0.91670984 36
-0.75348288 -0.77077579 0.65078193 38
-0.73958433 -0.75629425 0.51570243 37
-0.71810699 -0.73407537 0.3917869 37
-0.67327178 -0.68824315 0.27426568 37
-0.53972769 -0.55153686 0.16222602 82
-0.97723579 -0.99722385 1.324705 34
nan nan nan 0
-0.76487809 -0.7799778 0.72756469 41
-0.74753976 -0.76229721 0.58101815 39
-0.73452002 -0.74875903 0.45419851 38
-0.69801301 -0.7112959 0.33107814 37
-0.6416949 -0.65367782 0.21997377 40
-0.26585385 -0.27072385 0.10898176 121
-0.035781875 -0.03638649 4.2541118 11
-0.45434028 -0.46201736 4.1197653 26
-0.59870887 -0.60861295 4.1279373 24
-0.89085382 -0.90527439 4.1075087 17
-1.2027128 -1.221755 4.0984664 9
-1.3311766 -1.3517808 3.5440862 11
-1.1794345 -1.1972719 2.5409758 25
-1.0879797 -1.1040485 1.9324346 31
-0.17395695 -0.17634138 4.1225386 19
-0.31362599 -0.31781396 4.1211882 24
-0.74328208 -0.75294453 4.1109924 19
-1.045862 -1.059088 4.1018925 12
-1.2266207 -1.2416991 3.672735 17
-1.2532482 -1.2682111 2.9865732 18
-1.1331 -1.1462283 2.2089827 29
-1.0520679 -1.0638858 1.7003169 33
-1.0130312 -1.0301486 1.499593 33
-0.94112694 -0.95669538 1.1644837 35
-0.89606297 -0.91056788 0.92219275 36
-0.762384 -0.77445465 0.65541953 38
-0.74547261 -0.75701118 0.51757544 37
-0.72403157 -0.73498166 0.39319694 37
-0.68256474 -0.69288772 0.27613091 37
-0.56611788 -0.5744791 0.16535556 71
-0.98595607 -0.9991219 1.331356 35
-0.12677231 -0.12842032 0.21493958 116
-0.77971196 -0.78957224 0.73769742 43
-0.75657403 -0.76614171 0.58521426 39
-0.74044776 -0.74954987 0.45584202 38
-0.70732468 -0.71576971 0.33342275 37
-0.65441704 -0.66199917 0.22204581 40
-0.28436163 -0.28755587 0.10998941 119
-0.035908669 -0.036261369 4.2541118 10
-0.45595023 -0.4604286 4.1197653 26
-0.60082972 -0.60651934 4.1279373 24
-0.89505905 -0.90321952 4.1122808 15
-1.2069701 -1.2175492 4.0984664 10
-1.3443192 -1.3556288 3.5660317 12
-1.1895521 -1.199141 2.5533745 25
-1.0986 -1.1070694 1.943947 31
-0.17477487 -0.17593791 4.1275306 18
-0.31473345 -0.31671727 4.1211882 24
-0.74590582 -0.75034541 4.1109924 18
-1.0495526 -1.0554309 4.1018925 11
-1.2294123 -1.2358665 3.6682339 18
-1.2631863 -1.2693747 2.9993713 19
-1.1434718 -1.1486726 2.220953 29
-1.0605595 -1.0650114 1.7076672 33
-1.0216397 -1.0316743 1.506602 34
-0.94993931 -0.95893478 1.1707605 34
-0.90806574 -0.91634476 0.93041718 36
-0.76820135 -0.77493471 0.65773833 38
-0.75463915 -0.76098788 0.52132148 37
-0.7333495 -0.73926097 0.39601699 37
-0.69189829 -0.69747561 0.27799615 37
-0.5891667 -0.59370869 0.16803804 65
-0.99470133 -1.0009711 1.3380071 35
-0.13006946 -0.13084362 0.21788274 115
-0.8067807 -0.81129926 0.75796282 42
-0.76244396 -0.76671427 0.58731234 38
-0.7463901 -0.75030851 0.45748553 38
-0.71324748 -0.71674168 0.33459508 37
-0.66720486 -0.67023951 0.22411785 39
-0.29946467 -0.30072173 0.11079554 117
-0.036065839 -0.036166698 4.2591114 10
-0.45755467 -0.45883423 4.1197653 26
-0.60294324 -0.6044184 4.1279373 23
-0.90031523 -0.9022029 4.1218243 14
-1.2098325 -1.2119461 4.0938635 11
-1.3575047 -1.3594016 3.5879772 14
-1.1996969 -1.2009541 2.5657735 26
-1.1069891 -1.1077623 1.951622 31
-0.17538795 -0.17532676 4.1275306 18
-0.31583709 -0.3156167 4.1211882 24
-0.74940974 -0.7486254 4.1158319 17
-1.0532303 -1.0517609 4.1018925 10
-1.2337188 -1.2315676 3.6682339 20
-1.274994 -1.2723266 3.0164349 20
-1.151741 -1.1489303 2.2289329 30
-1.0690717 -1.0660905 1.7150176 33
-1.0302712 -1.0331523 1.5136111 34
-0.95877862 -0.96112436 1.1770375 35
-0.91716611 -0.9190892 0.93590009 36
-0.77716106 -0.77851874 0.66237599 38
-0.76056671 -0.76162946 0.52319455 37
-0.73931581 -0.74009055 0.39742702 37
-0.70127207 -0.70200688 0.27986142 37
-0.60883617 -0.60926145 0.17027344 65
-1.0034715 -1.0027714 1.344658 35
-0.13338503 -0.13324544 0.22082588 116
-0.84316134 -0.84198499 0.78582782 46
-0.77153862 -0.77046216 0.59150845 38
-0.75568855 -0.75437087 0.46077251 38
-0.72262615 -0.72111434 0.33693972 37
-0.67655218 -0.67490119 0.22549921 39
-0.32527569 -0.32436866 0.11220625 116
-0.036222786 -0.036071375 4.2641115 9
-0.45915347 -0.45723426 4.1197653 25
-0.60504931 -0.60230994 4.1279373 22
-0.90345907 -0.89905471 4.1218243 13
-1.2140558 -1.2077156 4.0938635 13
-1.3707329 -1.3630987 3.6099226 16
-1.2098688 -1.2027106 2.5781722 26
-1.1153963 -1.1084101 1.9592969 31
-0.17599888 -0.17471346 4.1275306 18
-0.31693688 -0.31451231 4.1211882 23
-0.75291073 -0.74689019 4.1206713 17
-1.0568951 -1.0480779 4.1018925 10
-1.2364641 -1.2257209 3.6637325 21
-1.2868375 -1.2752113 3.0334985 21
-1.1621667 -1.1512649 2.2409031 30
-1.0776044 -1.0671232 1.7223679 33
-1.0389252 -1.0345825 1.5206202 34
-0.96764481 -0.96326375 1.1833144 35
-0.92629671 -0.92178106 0.941383 37
-0.78301442 -0.7789253 0.66469479 38
-0.76979512 -0.76550782 0.52694058 37
-0.74529672 -0.74088722 0.39883706 37
-0.71068579 -0.70648104 0.28172666 37
-0.62862134 -0.62468398 0.17250884 54
-1.0122664 -1.0045226 1.3513091 35
-0.13384932 -0.13277902 0.22082588 114
-0.87670463 -0.86939067 0.81115961 41
-0.77744597 -0.77096009 0.59360647 39
-0.76167083 -0.75505292 0.46241602 38
-0.73204404 -0.72543025 0.33928433 37
-0.68945825 -0.68299073 0.22757125 38
-0.3583549 -0.35486943 0.11402003 112
-0.036348473 -0.035944715 4.2641115 9
-0.46074674 -0.45562872 4.1197653 25
-0.60714811 -0.60019433 4.1279373 21
-0.90765351 -0.89694476 4.1265965 12
-1.2168741 -1.2020974 4.0892611 14
-1.3822991 -1.365037 3.6274788 18
-1.22207 -1.2063878 2.5947039 27
-1.1238215 -1.1090127 1.9669722 31
-0.17681327 -0.17430073 4.1325221 17
-0.31803277 -0.31340405 4.1211882 23
-0.75730425 -0.74602181 4.1303501 16
-1.0605471 -1.0443823 4.1018925 10
-1.2407353 -1.2213974 3.6637325 22
-1.2987165 -1.2780288 3.0505624 21
-1.1726226 -1.1535406 2.2528732 31
-1.0861571 -1.0681093 1.7297182 33
-1.045066 -1.0334574 1.5241249 34
-0.97653747 -0.96535301 1.1895914 35
-0.93545693 -0.92442018 0.94686592 37
-0.78887993 -0.77930045 0.66701359 38
-0.77576119 -0.76607352 0.5288136 37
-0.75129223 -0.74165118 0.4002471 37
-0.72013921 -0.71089792 0.2835919 36
-0.64497662 -0.63647759 0.17429715 51
-1.0210855 -1.0062244 1.3579601 36
-0.140071 -0.13798419 0.22671223 113
-0.92273521 -0.90867084 0.84662414 40
-0.78336614 -0.77142602 0.5957045 39
-0.77103215 -0.75901496 0.46570304 38
-0.73803616 -0.72627974 0.34045666 37
-0.69889861 -0.68752557 0.22895262 38
-0.40233704 -0.3956517 0.1164384 108
-0.036504854 -0.035848185 4.2691112 8
-0.46233436 -0.45401764 4.1197653 24
-0.60923946 -0.59807128 4.1279373 19
-0.91077894 -0.89377105 4.1265965 11
-1.2196683 -1.1964743 4.0846586 16
-1.3904755 -1.3635572 3.6362567 24
-1.2323024 -1.2080244 2.6071029 27
-1.1345537 -1.1118132 1.9784846 31
-0.17742062 -0.17368245 4.1325221 17
-0.31912485 -0.31229201 4.1211882 22
-0.76080215 -0.74425262 4.1351895 15
-1.0641865 -1.040674 4.1018925 11
-1.2449912 -1.2170589 3.6637325 23
-1.3087656 -1.2789561 3.0633602 22
-1.1809529 -1.1536516 2.2608531 30
-1.0947298 -1.0690484 1.7370685 33
-1.0537561 -1.0348006 1.5311339 34
-0.98545647 -0.96739173 1.1958683 35
-0.94464701 -0.92700672 0.95234889 37
-0.79475772 -0.77964413 0.66933239 39
-0.78174055 -0.76660681 0.53068668 37
-0.75730217 -0.74238229 0.40165716 37
-0.72612417 -0.71181858 0.2845245 37
-0.66142178 -0.64816451 0.17608547 46
-1.0299288 -1.007877 1.364611 36
-0.14344117 -0.14032094 0.22965539 114
-0.93822974 -0.91750026 0.85675687 39
-0.78929895 -0.77185994 0.59780258 39
-0.77705365 -0.75962007 0.46734655 38
-0.74751961 -0.73049349 0.3428013 37
-0.70837897 -0.69200265 0.23033395 38
-0.44303331 -0.43264017 0.11865523 104
-0.036660999 -0.035751004 4.2741108 8
-0.46391636 -0.45240104 4.1197653 23
-0.61205256 -0.59665179 4.1328325 19
-0.91389316 -0.89058638 4.1265965 10
-1.2238373 -1.1922096 4.0846586 17
-1.3969425 -1.3603661 3.640646 26
-1.2425606 -1.209604 2.6195016 28
-1.1430218 -1.1123168 1.9861596 31
-0.17823279 -0.17326331 4.1375136 17
-0.32021299 -0.31117615 4.1211882 22
-0.76429701 -0.74246824 4.140029 14
-1.0678126 -1.036953 4.1018925 12
-1.2492318 -1.2127056 3.6637325 22
-1.3207085 -1.2816448 3.0804241 22
-1.1914612 -1.1558167 2.2728233 31
-1.1033224 -1.0699409 1.7444189 34
-1.0624682 -1.0360956 1.538143 34
-0.99440151 -0.96937996 1.2021452 35
-0.95386642 -0.92954022 0.9578318 37
-0.80064738 -0.77995622 0.67165118 39
-0.78773302 -0.76710767 0.53255969 37
-0.76676369 -0.74642664 0.40447721 37
-0.73564422 -0.71613258 0.28638974 36
-0.67795622 -0.65974426 0.17787379 43
-1.0361185 -1.0068778 1.3679365 36
-0.14972858 -0.14545223 0.2355417 113
-0.94451916 -0.9172228 0.85929 39
-0.79524434 -0.77226198 0.5999006 39
-0.78308868 -0.7601921 0.46899006 38
-0.75355309 -0.73126465 0.34397361 37
-0.71789896 -0.69642192 0.23171532 38
-0.48399237 -0.469349 0.12087208 102
-0.036785573 -0.035622813 4.2741108 7
-0.46493456 -0.45023841 4.1148262 22
-0.61413145 -0.59451169 4.1328325 18
-0.91699636 -0.88739091 4.1265965 9
-1.2265874 -1.186572 4.0800562 18
-1.4051257 -1.3588114 3.6494238 30
-1.2548684 -1.2130828 2.6360335 28
-1.1538123 -1.1150023 1.9976722 32
-0.1790442 -0.17284063 4.1425052 17
-0.32129723 -0.31005651 4.1211882 21
-0.76778877 -0.74066859 4.1448684 13
-1.0712453 -1.0334063 4.1018925 13
-1.2595146 -1.214601 3.6817374 20
-1.332462 -1.2844983 3.0974877 23
-1.1996268 -1.1560411 2.2808034 31
-1.1141889 -1.0733323 1.7554444 34
-1.0712022 -1.0373424 1.5451521 34
-1.0033724 -0.97131741 1.2084221 35
-0.96311486 -0.93202049 0.96331471 37
-0.80654889 -0.78023666 0.67396998 38
-0.79693639 -0.77093774 0.53630573 37
-0.77268296 -0.74721462 0.40588725 37
-0.74167126 -0.71697456 0.28732237 36
-0.69099826 -0.6677556 0.17921501 40
-1.0448242 -1.0086229 1.3745875 36
-0.1560272 -0.15056852 0.24142802 112
-0.95376056 -0.92007148 0.8643564 39
-0.80446911 -0.77578229 0.60409671 39
-0.78913724 -0.7607314 0.47063357 38
-0.76310104 -0.73537552 0.34631824 36
-0.72733611 -0.70090997 0.23309669 38
-0.52512425 -0.50586826 0.12308892 98
-0.036934946 -0.035530884 4.2791109 7
-0.46642503 -0.44869411 4.1148262 21
-0.61683351 -0.59317762 4.1377282 17
-0.91993403 -0.88434517 4.1265965 8
-1.2305154 -1.182498 4.0800562 18
-1.4113512 -1.3558036 3.6538131 31
-1.2649733 -1.2147622 2.6484323 28
-1.1621279 -1.1156094 2.0053473 32
-0.17982477 -0.17244576 4.1474972 17
-0.32232368 -0.30898935 4.1211882 20
-0.7711482 -0.7389881 4.1497078 12
-1.0746664 -1.0298482 4.1018925 16
-1.2698234 -1.2164413 3.6997426 18
-1.3442487 -1.2872881 3.1145513 23
-1.2099838 -1.1583077 2.2927732 31
-1.1226408 -1.0743195 1.7627947 34
-1.0797764 -1.0387293 1.5521612 34
-1.012199 -0.97338068 1.214699 35
-0.9722293 -0.93461728 0.96879762 37
-0.81232589 -0.78062713 0.67628878 38
-0.80283123 -0.77150297 0.5381788 37
-0.77861601 -0.74797148 0.40729728 37
-0.75113094 -0.72131604 0.28918761 36
-0.70398647 -0.67580676 0.18055625 39
-1.0535531 -1.0103211 1.3812386 36
-0.16236132 -0.15564455 0.24731433 112
-0.95991886 -0.91988623 0.86688954 39
-0.81031477 -0.77624995 0.60619479 39
-0.79506618 -0.76137632 0.47227708 38
-0.7690466 -0.73620206 0.34749055 37
-0.7368108 -0.70534301 0.23447806 37
-0.56650323 -0.54211944 0.12530576 96
-0.037003092 -0.03545991 4.2791109 6
-0.4678466 -0.44833544 4.1197653 21
-0.61870641 -0.59269661 4.1426229 17
-0.92039818 -0.88170558 4.1218243 8
-1.2325773 -1.1803486 4.0800562 19
-1.4152091 -1.3552415 3.6582022 32
-1.2729782 -1.2186116 2.6608312 29
-1.1706305 -1.120635 2.0168598 32
-0.18024392 -0.17242549 4.1524887 17
-0.32264709 -0.30865163 4.1211882 19
-0.77283007 -0.73904884 4.1545472 11
-1.074497 -1.0275296 4.0971999 17
-1.2821118 -1.225641 3.731251 16
-1.3529123 -1.293323 3.1316152 24
-1.2175297 -1.1634967 2.3047435 31
-1.1282924 -1.0782198 1.7701451 34
-1.0869184 -1.0415893 1.5591702 35
-1.0195169 -0.97699875 1.2209759 36
-0.9798981 -0.93870419 0.97428066 37
-0.81674993 -0.78241462 0.67860758 38
-0.8075248 -0.77330709 0.54005182 37
-0.78325474 -0.75006539 0.40870732 37
-0.75581157 -0.72353226 0.29012021 36
-0.71212411 -0.6817106 0.18145041 39
-1.0574846 -1.0116142 1.384564 36
nan nan nan 0
-0.96711272 -0.92483914 0.87195593 39
-0.81440789 -0.77853715 0.60829288 39
-0.79914361 -0.76394522 0.47392058 38
-0.77671695 -0.74224693 0.34983522 37
-0.74458641 -0.71154231 0.23585942 37
-0.59948856 -0.57268363 0.12711954 95
-0.037126645 -0.035330527 4.2791109 6
-0.46940875 -0.44669959 4.1197653 19
-0.62224704 -0.59193701 4.1524134 16
-0.92362356 -0.87832624 4.1218243 8
-1.2368952 -1.175823 4.0800562 21
-1.4221385 -1.3514473 3.6625915 32
-1.2858087 -1.2214673 2.6773629 29
-1.179768 -1.1203409 2.0245347 32
-0.18117401 -0.17186765 4.1574802 16
-0.32399073 -0.30724087 4.1211882 20
-0.77604741 -0.73566967 4.1545472 9
-1.0791487 -1.022643 4.0971999 17
-1.2955623 -1.2272961 3.753757 14
-1.3684603 -1.2958996 3.1529448 25
-1.2273755 -1.1618894 2.3127234 31
-1.1384729 -1.0773536 1.7774954 34
-1.0957143 -1.0427058 1.5661794 35
-1.028731 -0.97862095 1.2272528 36
-0.98636204 -0.93798786 0.97702211 38
-0.82295877 -0.78232485 0.68092638 38
-0.81384867 -0.77339417 0.54192483 38
-0.78973716 -0.75021899 0.41011733 37
-0.76570696 -0.72739124 0.29198545 36
-0.72568828 -0.68913412 0.18279165 38
-1.067307 -1.0121288 1.391215 36
nan nan nan 0
-0.97755748 -0.92637134 0.87702227 39
-0.82109129 -0.77809793 0.6103909 39
-0.80603027 -0.76355857 0.47556409 38
-0.78360647 -0.74205685 0.35100752 37
-0.75152743 -0.71143001 0.23655009 37
-0.63483918 -0.60075754 0.12893331 83
-0.037281461 -0.035230685 4.2841105 5
-0.4715299 -0.44559199 4.1247048 19
-0.62504971 -0.59046054 4.1573091 15
-0.92559862 -0.8740719 4.1170526 8
-1.2424128 -1.1728393 4.0846586 22
-1.4268472 -1.346475 3.6625915 33
-1.2962053 -1.2227644 2.6897616 29
-1.1883352 -1.1206141 2.0322096 32
-0.18219313 -0.1716301 4.1674638 16
-0.32544932 -0.30647355 4.1261597 19
-0.77861065 -0.73295635 4.1545472 9
-1.0814551 -1.0176873 4.0925069 19
-1.3093522 -1.2317157 3.7807641 14
-1.3805752 -1.2982614 3.1700087 25
-1.2380102 -1.1637895 2.3246934 32
-1.1471678 -1.0780162 1.7848457 35
-1.1045314 -1.0437734 1.5731884 35
-1.0377998 -0.98036975 1.2335297 36
-0.99571055 -0.9402808 0.98250502 38
-0.83212703 -0.78552902 0.68556398 39
-0.819915 -0.7737304 0.54379785 37
-0.79933012 -0.75404119 0.4129374 37
-0.77181458 -0.72808468 0.29291809 36
-0.73533565 -0.69343013 0.18368581 38
-1.07627 -1.0135165 1.397866 36
nan nan nan 0
-0.98392463 -0.92590767 0.8795554 39
-0.82710761 -0.77833736 0.61248899 39
-0.81556964 -0.76721144 0.47885111 38
-0.78973293 -0.74264687 0.35217986 37
-0.76122242 -0.71558595 0.23793146 37
-0.66241717 -0.62248647 0.13034403 75
-0.037436027 -0.035130192 4.2891102 5
-0.47364908 -0.44447511 4.1296439 18
-0.62784946 -0.58897167 4.1622038 14
-0.928644 -0.87083566 4.1170526 9
-1.2464991 -1.1684954 4.0846586 22
-1.4332862 -1.3431237 3.6669803 33
-1.3066269 -1.2240038 2.7021606 29
-1.1969187 -1.1208409 2.0398846 33
-0.18321276 -0.17138751 4.1774468 15
-0.32651711 -0.30533567 4.1261597 19
-0.78116441 -0.73023403 4.1545472 9
-1.085001 -1.0139061 4.0925069 20
-1.3215979 -1.234568 3.8032703 13
-1.3927231 -1.3005545 3.1870723 25
-1.2486732 -1.1656296 2.3366637 32
-1.1583595 -1.0809441 1.7958713 35
-1.1133693 -1.0447924 1.5801976 34
-1.0468931 -0.98206717 1.2398067 36
-1.0050868 -0.9425199 0.98798794 37
-0.83809572 -0.78564918 0.68788278 38
-0.82599366 -0.77403361 0.54567093 37
-0.80545819 -0.75452596 0.41434744 37
-0.77793634 -0.72874445 0.29385069 36
-0.74865663 -0.7010709 0.18502705 38
-1.0825284 -1.0123038 1.4011915 36
nan nan nan 0
-0.99344993 -0.92835391 0.8846218 39
-0.83313555 -0.77854419 0.61458701 39
-0.82169354 -0.76758343 0.48049462 38
-0.79587293 -0.74320304 0.35335216 37
-0.77095562 -0.71968287 0.2393128 37
-0.69015425 -0.64402986 0.13175476 66
-0.037590351 -0.03502905 4.2941103 4
-0.47576606 -0.44334871 4.134583 17
-0.62990159 -0.58677649 4.1622038 13
-0.9305858 -0.86657161 4.1122808 11
-1.2520003 -1.1654682 4.0892611 25
-1.4379658 -1.3381124 3.6669803 33
-1.3170725 -1.2251853 2.7145593 30
-1.2078658 -1.1232041 2.0513973 33
-0.18444446 -0.17133641 4.1924219 15
-0.32797158 -0.30455676 4.1311312 18
-0.78370863 -0.72750276 4.1545472 8
-1.0885335 -1.0101126 4.0925069 21
-1.3354753 -1.2388303 3.8302777 12
-1.4068161 -1.3045516 3.2084019 26
-1.259364 -1.1674093 2.3486338 32
-1.167099 -1.0815026 1.8032216 35
-1.1196187 -1.0433309 1.5837022 34
-1.0560108 -0.98371291 1.2460835 36
-1.0114309 -0.94185543 0.99072945 37
-0.8440755 -0.78573716 0.69020158 39
-0.83208436 -0.77430379 0.54754394 38
-0.8151117 -0.75824434 0.41716748 37
-0.7876687 -0.73271596 0.29571593 36
-0.75839299 -0.70523584 0.18592119 37
-1.0915275 -1.0136002 1.4078425 36
nan nan nan 0
-1.0030042 -0.93074501 0.88968813 39
-0.83917493 -0.77871847 0.61668509 39
-0.82782984 -0.76792181 0.48213813 38
-0.80559045 -0.74703032 0.3556968 37
-0.77709478 -0.72035378 0.2400035 37
-0.71072054 -0.6585955 0.1327624 57
-0.037744418 -0.034927256 4.2991099 4
-0.47845137 -0.44274077 4.1444616 17
-0.63269341 -0.58526552 4.167099 12
-0.93360507 -0.86331797 4.1122808 13
-1.256061 -1.1610907 4.0892611 25
-1.4426279 -1.3330848 3.6669803 34
-1.3275424 -1.2263087 2.7269583 30
-1.2164887 -1.12333 2.0590723 33
-0.1854658 -0.171083 4.202405 15
-0.32903263 -0.30341002 4.1311312 18
-0.78624332 -0.72476262 4.1545472 8
-1.0920528 -1.0063066 4.0925069 23
-1.347797 -1.2415355 3.8527834 13
-1.4190354 -1.3066996 3.2254655 26
-1.2700821 -1.1691285 2.3606038 32
-1.1758564 -1.0820131 1.8105719 35
-1.1284887 -1.0442606 1.5907112 35
-1.0651529 -0.98530692 1.2523605 35
-1.0208524 -0.94399691 0.99621236 37
-0.85006601 -0.78579301 0.69252038 39
-0.84159166 -0.77768707 0.55129004 38
-0.8212772 -0.75864953 0.41857752 38
-0.79382992 -0.73329526 0.29664856 36
-0.76816744 -0.70934117 0.18681535 36
-1.0978038 -1.0123152 1.411168 37
nan nan nan 0
-1.0094171 -0.93015945 0.89222133 39
-0.84522557 -0.77885997 0.61878312 39
-0.83397853 -0.76822698 0.48378164 38
-0.81176877 -0.74750626 0.3568691 37
-0.78689134 -0.72434461 0.24138483 37
-0.73139668 -0.67302513 0.13377005 52
-0.037898235 -0.034824811 4.3041101 4
-0.48113817 -0.44211942 4.1543407 17
-0.63473254 -0.58305347 4.167099 9
-0.93551338 -0.85904419 4.1075087 15
-1.2615455 -1.1580205 4.0938635 27
-1.4472725 -1.3280408 3.6669803 34
-1.3401098 -1.2292761 2.7434902 30
-1.2274896 -1.1255758 2.0705848 34
-0.18648762 -0.17082456 4.2123885 14
-0.3304829 -0.30261967 4.1361032 17
-0.78784132 -0.72116506 4.1497078 8
-1.0955588 -1.0024886 4.0925069 24
-1.3601542 -1.24417 3.8752897 13
-1.4312867 -1.308778 3.2425294 26
-1.2808278 -1.170787 2.3725739 32
-1.1846315 -1.0824758 1.8179222 35
-1.1400046 -1.047554 1.6012248 35
-1.0714521 -0.98421597 1.2554989 35
-1.0303012 -0.94608402 1.0016953 38
-0.85933053 -0.78881216 0.69715798 39
-0.84771705 -0.777879 0.55316305 38
-0.83099055 -0.76226348 0.4213976 38
-0.80000484 -0.73384047 0.2975812 36
-0.77430922 -0.7100212 0.18726245 36
-1.1068382 -1.01352 1.417819 37
nan nan nan 0
-1.0190183 -0.93245041 0.89728767 39
-0.85128742 -0.77896863 0.62088114 40
-0.84013939 -0.7684983 0.48542514 39
-0.81796014 -0.74794823 0.35804144 37
-0.79307014 -0.72493452 0.24207553 36
-0.74480581 -0.68057817 0.13437465 50
-0.038051795 -0.034721717 4.3091092 4
-0.48382643 -0.44148466 4.1642189 16
-0.63676393 -0.58083433 4.167099 9
-0.93850636 -0.85577339 4.1075087 16
-1.2655801 -1.1536099 4.0938635 27
-1.4518993 -1.3229809 3.6669803 34
-1.3506337 -1.2302756 2.7558889 30
-1.2361511 -1.1256001 2.0782599 34
-0.18729633 -0.17036681 4.2173805 14
-0.33232599 -0.30218142 4.1460457 17
-0.79035378 -0.71841061 4.1497078 8
-1.1003287 -0.9998188 4.0971999 25
-1.3709345 -1.2452693 3.8932943 14
-1.4455006 -1.3125401 3.263859 27
-1.2916001 -1.1723846 2.3845439 32
-1.1934242 -1.0828905 1.8252726 36
-1.1489232 -1.048376 1.6082339 35
-1.0806326 -0.98571616 1.2617759 36
-1.0366873 -0.94529921 1.0044367 37
-0.86535263 -0.78879189 0.69947678 39
-0.85385382 -0.77803761 0.55503613 38
-0.83719265 -0.7625885 0.42280763 38
-0.80619305 -0.73435134 0.29851383 36
-0.78414732 -0.71401972 0.1881566 36
-1.1158944 -1.0146741 1.4244701 37
nan nan nan 0
-1.0254575 -0.93178678 0.89982086 39
-0.86071926 -0.78209662 0.62507725 39
-0.84631222 -0.768736 0.48706865 39
-0.82416451 -0.74835593 0.35921374 37
-0.79926264 -0.72549003 0.2427662 37
-0.75827652 -0.68804568 0.13497925 47
-0.038205098 -0.034617979 4.3141093 3
-0.48651618 -0.44083664 4.1740975 15
-0.63878751 -0.57860804 4.167099 9
-0.94038135 -0.85149026 4.1027365 17
-1.2710475 -1.1504961 4.0984664 28
-1.4565086 -1.3179048 3.6669803 34
-1.3632678 -1.2331043 2.7724209 31
-1.2472049 -1.1277273 2.0897722 34
-0.18810411 -0.1699055 4.2223716 13
-0.33377442 -0.30137682 4.1510172 16
-0.79192364 -0.71480513 4.1448684 9
-1.1038119 -0.99597186 4.0971999 26
-1.3833554 -1.2477666 3.9158006 15
-1.457821 -1.3144723 3.2809227 27
-1.3023995 -1.1739212 2.3965139 33
-1.2022339 -1.0832567 1.8326229 36
-1.1578611 -1.0491482 1.615243 36
-1.0869515 -0.98455107 1.2649143 36
-1.0461798 -0.94728792 1.0099196 37
-0.87466913 -0.79171181 0.70411432 39
