# .PCD v0.7 - Point Cloud Data file format
VERSION 0.7
FIELDS x y z intensity
SIZE 4 4 4 4
TYPE F F F F
COUNT 1 1 1 1
WIDTH 1418
HEIGHT 1
VIEWPOINT 0 0 0 1 0 0 0
POINTS 1418
DATA ascii
-0.25310621 0.59196699 1.5762829 33
-0.26837838 0.62798887 1.3188231 29
-0.28324205 0.66308922 1.1316402 30
-0.29399496 0.68859518 0.97305846 30
-0.097370185 0.2283916 4.1325221 17
-0.15288682 0.35878503 3.5942087 7
-0.21461329 0.50388461 2.1461859 33
-0.2416717 0.56768906 1.7320454 33
-0.26232386 0.61649972 1.4491354 34
-0.27829537 0.65435213 1.2332743 32
-0.28868058 0.6790998 1.0518758 30
-0.29742065 0.69999951 0.90280622 28
-0.30339351 0.7085529 0.83723378 28
-0.30290118 0.70774436 0.70313054 27
-0.2903018 0.67863274 0.56854367 24
-0.29314375 0.68560714 0.47687197 23
-0.11691961 0.27358472 0.208525 43
-0.10000502 0.23411869 0.16477165 46
nan nan nan 0
nan nan nan 0
-0.30436891 0.71427351 0.772672 27
-0.28928691 0.67920876 0.62109572 26
-0.2759327 0.64816856 0.4995786 23
-0.28664878 0.67334068 0.42576227 23
nan nan nan 0
-0.12751347 0.29982072 0.16929832 61
-3.7951474 8.9278059 1.4452401 2
nan nan nan 0
-0.019668086 0.046380095 4.1791148 34
-0.18108627 0.42702678 2.9491611 5
-0.19528681 0.46073732 2.4292934 31
-0.22701518 0.53585386 1.9076239 33
-0.25103831 0.59284693 1.5762829 34
-0.26618463 0.62892187 1.3188231 29
-0.27982938 0.66148227 1.1275072 31
-0.29158953 0.68961722 0.97305846 28
-0.096684635 0.22899602 4.1375136 17
-0.15204799 0.36029872 3.6041517 7
-0.2123646 0.50347251 2.1413465 32
-0.23901822 0.56693906 1.7273527 33
-0.26017025 0.61741161 1.4491354 34
-0.27499723 0.65291613 1.2290084 31
-0.28513917 0.67732608 1.0478858 30
-0.2949754 0.70103347 0.90280622 28
-0.30091837 0.7096076 0.83723378 27
-0.30042881 0.70879734 0.70313054 26
-0.28630003 0.67579174 0.56580216 24
-0.28902143 0.68254715 0.47455317 22
-0.11235005 0.26545259 0.20477894 40
-0.095449254 0.22563033 0.16195157 40
nan nan nan 0
nan nan nan 0
-0.30187374 0.71533161 0.772672 27
-0.28691429 0.68021441 0.62109572 26
-0.27199382 0.64515555 0.49704543 23
-0.28253347 0.67015505 0.42366421 23
nan nan nan 0
-0.12080605 0.28682545 0.16578136 52
nan nan nan 0
nan nan nan 0
-0.019506067 0.046448469 4.1791148 34
-0.17899285 0.42622349 2.9392824 6
-0.19328324 0.46047732 2.4243979 31
-0.22456582 0.53526658 1.9028518 33
-0.24896736 0.5937196 1.5762829 34
-0.26398769 0.62984723 1.3188231 29
-0.27751863 0.66245496 1.1275072 30
-0.28918055 0.69063085 0.97305846 28
-0.095996074 0.22959849 4.1425052 17
-0.14935063 0.35738441 3.5693512 7
-0.21060584 0.50421071 2.1413465 32
-0.23703778 0.56776994 1.7273527 33
-0.25801352 0.61831599 1.4491354 34
-0.27271646 0.65387207 1.2290084 31
-0.28277314 0.67831737 1.0478858 29
-0.29252654 0.70205885 0.90280622 27
-0.29843953 0.71065366 0.83723378 26
-0.29795283 0.70984179 0.70313054 26
-0.28232163 0.67293113 0.5630607 23
-0.28663719 0.68355185 0.47455317 21
-0.10604673 0.25301647 0.19915983 38
-0.090954013 0.21711311 0.1591315 38
nan nan nan 0
nan nan nan 0
-0.29937497 0.71638095 0.772672 26
-0.28453815 0.68121177 0.62109572 26
-0.26807934 0.64212298 0.49451223 22
-0.28019246 0.67113721 0.42366421 20
nan nan nan 0
-0.116062 0.27827322 0.16343673 39
nan nan nan 0
nan nan nan 0
-0.019360567 0.046556558 4.184114 33
-0.17690729 0.42541084 2.929404 7
-0.19167471 0.46114919 2.4243979 31
-0.22269604 0.53604722 1.9028518 33
-0.24689338 0.594585 1.5762829 34
-0.2617875 0.6307649 1.3188231 29
-0.27520454 0.66341966 1.1275072 30
-0.28676802 0.69163615 0.97305846 28
-0.095304467 0.2301989 4.1474972 16
-0.14708312 0.35544086 3.5444937 7
-0.20884454 0.50494277 2.1413465 32
-0.23439519 0.56699914 1.7226599 32
-0.25585359 0.61921287 1.4491354 33
-0.27043238 0.65482002 1.2290084 31
-0.27925393 0.67651498 1.0438957 29
-0.29007411 0.70307571 0.90280622 27
-0.29595706 0.71169114 0.83723378 26
-0.29397932 0.70728326 0.69999212 25
-0.27836674 0.6700511 0.56031924 22
-0.28255057 0.68045712 0.47223437 19
-0.10160872 0.24482152 0.19541377 38
-0.086519442 0.2085674 0.15631144 37
nan nan nan 0
nan nan nan 0
-0.2968725 0.71742159 0.772672 25
-0.28215855 0.68220085 0.62109572 25
-0.26418942 0.63907105 0.49197906 20
-0.2761142 0.66791695 0.42156616 19
nan nan nan 0
-0.10952381 0.26519898 0.15991977 37
nan nan nan 0
nan nan nan 0
-0.019197935 0.04662386 4.184114 33
-0.17482956 0.42458883 2.9195256 8
-0.18967633 0.46087393 2.419503 31
-0.22082353 0.53682131 1.9028518 33
-0.24481639 0.59544325 1.5762829 32
-0.2595841 0.63167483 1.3188231 29
-0.27181795 0.66177326 1.1233742 30
-0.28313473 0.68966782 0.969221 28
-0.094609842 0.23079732 4.1524887 16
-0.1446289 0.35299253 3.5146644 7
-0.20660432 0.50450552 2.136507 33
-0.23241456 0.56781387 1.7226599 32
-0.25369057 0.62010217 1.4491354 33
-0.26715788 0.65334606 1.2247425 30
-0.27689075 0.67748564 1.0438957 29
-0.28761816 0.70408392 0.90280622 27
-0.29347098 0.71271986 0.83723378 25
-0.29150862 0.70830512 0.69999212 25
-0.27602613 0.67101866 0.56031924 21
-0.28017363 0.68143928 0.47223437 18
-0.09546715 0.2323108 0.18979467 36
-0.082145676 0.19999346 0.15349138 35
nan nan nan 0
nan nan nan 0
-0.29436639 0.71845347 0.772672 24
-0.27977547 0.68318164 0.62109572 25
-0.26195702 0.63998932 0.49197906 20
-0.27550027 0.67307693 0.42366421 17
nan nan nan 0
-0.10491804 0.25658157 0.15757513 35
nan nan nan 0
nan nan nan 0
-0.019035071 0.046690587 4.184114 34
-0.17217308 0.42231849 2.8997686 6
-0.18806644 0.46153319 2.419503 31
-0.21838528 0.53620636 1.8980799 33
-0.2419998 0.59448469 1.5716803 33
-0.25647497 0.63035876 1.3144341 29
-0.26950628 0.66271806 1.1233742 29
-0.2807256 0.69065189 0.969221 27
-0.093803637 0.23112616 4.1524887 15
-0.1421936 0.35053146 3.4848356 7
-0.20484199 0.50522363 2.136507 32
-0.22978297 0.56702238 1.7179672 32
-0.25152448 0.62098402 1.4491354 33
-0.26487565 0.65427464 1.2247425 30
-0.27452418 0.67844802 1.0438957 29
-0.28515869 0.70508361 0.90280622 26
-0.29098135 0.71373987 0.83723378 24
-0.2890344 0.7093184 0.69999212 25
-0.27368215 0.67197812 0.56031924 20
-0.27612308 0.67831016 0.46991557 17
-0.091161363 0.22405444 0.1860486 35
-0.079639971 0.19583531 0.15208134 33
nan nan nan 0
nan nan nan 0
-0.29045326 0.71601677 0.76934654 24
-0.27738902 0.68415403 0.62109572 25
-0.25810242 0.6369046 0.48944589 18
-0.27314913 0.67403448 0.42366421 16
nan nan nan 0
-0.1021978 0.25244084 0.15640283 32
nan nan nan 0
nan nan nan 0
-0.018871976 0.046756748 4.184114 34
-0.17069787 0.42291689 2.8997686 6
-0.18645422 0.46218687 2.419503 31
-0.21651223 0.53696543 1.8980799 33
-0.23992319 0.59532583 1.5716803 32
-0.25427306 0.63125008 1.3144341 28
-0.26719132 0.6636548 1.1233742 29
-0.27831307 0.69162756 0.969221 26
-0.092996284 0.23145218 4.1524887 14
-0.14096914 0.35102567 3.4848356 6
-0.20307718 0.50593555 2.136507 32
-0.22780229 0.56782103 1.7179672 31
-0.24935532 0.62185818 1.4491354 33
-0.26259017 0.65519518 1.2247425 30
-0.27215427 0.67940217 1.0438957 29
-0.28143567 0.70292747 0.89913106 25
-0.28848818 0.7147513 0.83723378 24
-0.28655666 0.71032298 0.69999212 23
-0.27133486 0.67292935 0.56031924 19
-0.27706537 0.6874873 0.47455317 15
-0.086914428 0.21577097 0.18230253 33
-0.078955889 0.19611213 0.15208134 32
nan nan nan 0
nan nan nan 0
-0.2879521 0.71702623 0.76934654 23
-0.2749992 0.68511814 0.62109572 23
-0.25587764 0.63780171 0.48944589 17
-0.24713641 0.61601335 0.39429149 14
nan nan nan 0
-0.10312422 0.25730777 0.15757513 32
nan nan nan 0
nan nan nan 0
-0.018708648 0.046822339 4.184114 33
-0.16893229 0.42278865 2.8948293 7
-0.18483976 0.46283489 2.419503 31
-0.21463655 0.53771794 1.8980799 33
-0.23711969 0.59434503 1.5670776 33
-0.25118095 0.62990922 1.3100449 28
-0.26487309 0.66458338 1.1233742 29
-0.27589715 0.69259489 0.969221 26
-0.0921878 0.2317754 4.1524887 14
-0.13993989 0.35201097 3.4898071 6
-0.20130992 0.50664133 2.136507 32
-0.22518188 0.56700885 1.7132742 32
-0.2471831 0.62272483 1.4491354 33
-0.26030156 0.65610784 1.2247425 29
-0.26978108 0.68034798 1.0438957 28
-0.27898031 0.70390558 0.89913106 25
-0.28466821 0.71244228 0.83372921 23
-0.28407541 0.71131891 0.69999212 23
-0.2705344 0.67775583 0.5630607 18
-0.25332439 0.63496244 0.44440877 13
-0.086160719 0.21607305 0.18230253 32
-0.080046885 0.20084271 0.15349138 32
nan nan nan 0
nan nan nan 0
-0.28406811 0.71455735 0.76602101 23
-0.27111346 0.68231761 0.61815256 23
-0.25524083 0.64269739 0.49197906 16
-0.21985723 0.55360138 0.36282071 11
nan nan nan 0
-0.10401791 0.26218426 0.15874746 32
nan nan nan 0
nan nan nan 0
-0.018545093 0.046887357 4.184114 33
-0.16888432 0.42698842 2.9195256 5
-0.18322302 0.46347731 2.419503 31
-0.21220973 0.53707564 1.8933079 33
-0.23432599 0.59335202 1.5624752 33
-0.24898063 0.63078213 1.3100449 27
-0.26255167 0.66550392 1.1233742 28
-0.27347785 0.69355375 0.969221 25
-0.09137819 0.23209578 4.1524887 13
-0.13871029 0.35249725 3.4898071 7
-0.19954018 0.50734097 2.136507 32
-0.22256994 0.56618541 1.7085816 31
-0.24421181 0.62155771 1.4446342 32
-0.2580097 0.6570124 1.2247425 29
-0.26740459 0.68128562 1.0438957 28
-0.2765215 0.70487511 0.89913106 24
-0.28217959 0.7134316 0.83372921 22
-0.28015974 0.70868647 0.69685364 23
-0.26970348 0.68258494 0.56580216 16
-0.2169368 0.54931968 0.39571398 10
-0.085405953 0.21637248 0.18230253 32
-0.082866259 0.21004561 0.15631144 34
nan nan nan 0
nan nan nan 0
-0.28157207 0.71554452 0.76602101 22
-0.26873007 0.68325979 0.61815256 22
-0.23880184 0.60747701 0.46918046 14
-0.21626303 0.55014157 0.36072266 11
nan nan nan 0
-0.10665545 0.27159429 0.1610921 34
nan nan nan 0
nan nan nan 0
-0.018381312 0.046951808 4.184114 34
-0.16795935 0.42902243 2.929404 4
-0.18123305 0.46316579 2.4146075 31
-0.2103337 0.53781307 1.8933079 31
-0.23225337 0.59416634 1.5624752 31
-0.24590573 0.6294167 1.3056558 27
-0.26022702 0.66641635 1.1233742 28
-0.27105525 0.69450414 0.969221 25
-0.09056747 0.23241334 4.1524887 13
-0.13728555 0.35248262 3.4848356 6
-0.19731204 0.50686306 2.1316676 32
-0.22059225 0.56695884 1.7085816 31
-0.24204068 0.62240642 1.4446342 32
-0.25571471 0.65790904 1.2247425 29
-0.26502481 0.68221486 1.0438957 27
-0.27283224 0.7026757 0.8954559 23
-0.27968752 0.71441227 0.83372921 22
-0.27768427 0.70966005 0.69685364 23
-0.26884219 0.68741643 0.56854367 16
nan nan nan 0
-0.088024184 0.22530541 0.1860486 39
-0.087367199 0.22373898 0.16054153 39
nan nan nan 0
nan nan nan 0
-0.27907267 0.71652311 0.76602101 21
-0.26634341 0.68419367 0.61815256 22
-0.2007286 0.51590598 0.41091734 11
-0.2126957 0.5466634 0.35862461 11
nan nan nan 0
-0.11098941 0.28555623 0.16460904 39
nan nan nan 0
nan nan nan 0
-0.018233074 0.047056373 4.1891141 34
-0.16702221 0.4310551 2.9392824 4
-0.17961517 0.4637956 2.4146075 31
-0.20791626 0.53715193 1.888536 31
-0.23017792 0.5949735 1.5624752 31
-0.24370715 0.6302712 1.3056558 27
-0.25789919 0.66732073 1.1233742 28
-0.26862931 0.69544607 0.969221 24
-0.089651763 0.23245868 4.1474972 12
-0.13605432 0.35295972 3.4848356 6
-0.19554156 0.50754875 2.1316676 32
-0.21799172 0.56611496 1.7038888 31
-0.23986658 0.62324744 1.4446342 32
-0.25341666 0.65879768 1.2247425 29
-0.26264182 0.68313587 1.0438957 27
-0.27037778 0.70362377 0.8954559 22
-0.27719209 0.71538419 0.83372921 22
-0.2752054 0.71062505 0.69685364 22
-0.25738469 0.66495365 0.55209482 15
nan nan nan 0
-0.092252992 0.23858309 0.19166771 59
-0.09177348 0.23746619 0.16477165 48
nan nan nan 0
nan nan nan 0
-0.27656981 0.71749282 0.76602101 20
-0.26395354 0.68511927 0.61815256 21
-0.095139042 0.24707194 0.24119437 9
-0.23851144 0.61940378 0.39429149 19
nan nan nan 0
-0.11697221 0.30408823 0.16929832 59
nan nan nan 0
nan nan nan 0
-0.018068707 0.047119729 4.1891141 33
-0.16551656 0.4316355 2.9392824 5
-0.17763075 0.463469 2.4097126 31
-0.20603998 0.53787446 1.888536 32
-0.22809969 0.59577328 1.5624752 30
-0.24150561 0.63111806 1.3056558 27
-0.25556824 0.66821682 1.1233742 27
-0.2662001 0.69637954 0.969221 23
-0.088839784 0.23277022 4.1474972 12
-0.13463144 0.35293442 3.4798641 7
-0.19332089 0.50705367 2.1268282 32
-0.21601428 0.56687248 1.7038888 31
-0.23768957 0.62408096 1.4446342 32
-0.25111547 0.65967828 1.2247425 29
-0.26025563 0.68404841 1.0438957 26
-0.26671505 0.7013945 0.89178067 22
-0.27469325 0.7163474 0.83372921 20
-0.27133018 0.70794684 0.69371521 21
-0.25506201 0.66584808 0.55209482 14
nan nan nan 0
-0.096390121 0.25189289 0.19728681 68
-0.094371289 0.24674617 0.16759169 61
nan nan nan 0
nan nan nan 0
-0.27273285 0.71496534 0.76269555 19
-0.26156038 0.68603647 0.61815256 19
nan nan nan 0
-0.26220551 0.68808919 0.42786032 27
nan nan nan 0
-0.12109766 0.31812257 0.17281526 69
nan nan nan 0
nan nan nan 0
-0.017904116 0.047182512 4.1891141 34
-0.16428453 0.43293709 2.944222 4
-0.17601188 0.46408623 2.4097126 31
-0.20363212 0.53719461 1.8837639 32
-0.22532651 0.5947389 1.5578727 30
-0.23930113 0.63195723 1.3056558 27
-0.25323418 0.66910487 1.1233742 27
-0.26263368 0.69430655 0.96538347 22
-0.088026725 0.23307891 4.1474972 11
-0.13321039 0.35290349 3.4748926 7
-0.19154976 0.50772542 2.1268282 32
-0.21403421 0.56762308 1.7038888 30
-0.23474199 0.62286973 1.440133 31
-0.24881122 0.66055077 1.2247425 28
-0.25786626 0.68495274 1.0438957 26
-0.26426512 0.70232129 0.89178067 22
-0.27092579 0.71396762 0.83022469 20
-0.26885733 0.70888966 0.69371521 20
-0.22161154 0.58462548 0.49452403 11
nan nan nan 0
-0.098793685 0.2608988 0.20103288 72
-0.09860339 0.26053357 0.1718218 72
-0.75114357 1.9846997 0.49436405 2
nan nan nan 0
-0.27023551 0.715913 0.76269555 18
-0.26059085 0.690727 0.62109572 18
nan nan nan 0
-0.25820076 0.6847536 0.42576227 29
nan nan nan 0
-0.12512651 0.33218926 0.17633222 72
nan nan nan 0
nan nan nan 0
-0.017739311 0.04724472 4.1891141 33
-0.16277228 0.43350792 2.944222 5
-0.17403308 0.46374449 2.4048171 31
-0.2017557 0.53790218 1.8837639 32
-0.22324911 0.59552187 1.5578727 32
-0.23709373 0.63278872 1.3056558 26
-0.25089705 0.66998476 1.1233742 27
-0.26020849 0.6952191 0.96538347 21
-0.087212585 0.23338476 4.1474972 11
-0.13179123 0.35286698 3.4699211 6
-0.18933673 0.50721335 2.1219888 32
-0.21205153 0.56836677 1.7038888 30
-0.23256633 0.62368536 1.440133 31
-0.24559315 0.65897143 1.2204766 27
-0.25547379 0.68584871 1.0438957 26
-0.26181194 0.70323944 0.89178067 21
-0.26843193 0.71490896 0.83022469 19
-0.2663812 0.70982379 0.69371521 19
-0.13880368 0.37006536 0.34374341 9
-0.25707588 0.68575555 0.46991557 21
-0.099508941 0.26558331 0.20290589 74
-0.099375673 0.26536858 0.17323184 80
nan nan nan 0
nan nan nan 0
-0.26773486 0.71685189 0.76269555 18
-0.25959176 0.69541925 0.62403888 17
nan nan nan 0
-0.25580892 0.68565077 0.42576227 30
nan nan nan 0
-0.12905857 0.34628779 0.17984918 77
-3.3430343 8.9747601 1.4279732 2
nan nan nan 0
-0.017574288 0.047306359 4.1891141 33
-0.16098747 0.43334508 2.9392824 5
-0.17241324 0.46434915 2.4048171 31
-0.19935749 0.53720367 1.878992 31
-0.22116898 0.5962975 1.5578727 32
-0.23488343 0.63361245 1.3056558 26
-0.24855682 0.67085648 1.1233742 26
-0.25666705 0.69311738 0.961546 20
-0.086397395 0.23368777 4.1474972 10
-0.13037392 0.35282484 3.4649496 6
-0.18756506 0.50787121 2.1219888 31
-0.20946871 0.56748456 1.699196 30
-0.23038784 0.62449336 1.440133 31
-0.24329144 0.65982467 1.2204766 27
-0.25307816 0.68673629 1.0438957 25
-0.2593556 0.70414901 0.89178067 20
-0.26469284 0.71249861 0.82672012 19
-0.26390186 0.71074933 0.69371521 18
nan nan nan 0
-0.25468057 0.68664873 0.46991557 26
-0.10019267 0.27027586 0.20477894 83
-0.101782 0.2747103 0.1760519 82
-0.72532302 1.9576515 0.48783568 4
nan nan nan 0
-0.26523098 0.71778214 0.76269555 18
-0.25856301 0.70011282 0.62698203 16
nan nan nan 0
-0.25341401 0.68653947 0.42576227 31
nan nan nan 0
-0.13121212 0.3558571 0.18219382 80
-3.304837 8.9677887 1.4252105 3
nan nan nan 0
-0.017409049 0.047367416 4.1891141 33
-0.15947384 0.43390438 2.9392824 5
-0.17044023 0.46399242 2.3999221 31
-0.1974811 0.53789628 1.878992 31
-0.21908616 0.59706593 1.5578727 30
-0.23267029 0.6344285 1.3056558 26
-0.24621357 0.67172003 1.1233742 24
-0.25424609 0.69400907 0.961546 19
-0.085581146 0.23398794 4.1474972 10
-0.12895852 0.35277712 3.4599781 6
-0.18535975 0.50734216 2.1171494 32
-0.20748653 0.56821227 1.699196 30
-0.22820655 0.62529379 1.440133 31
-0.24009302 0.65821981 1.2162106 27
-0.24964739 0.68478447 1.0399058 25
-0.25573543 0.70186472 0.88810551 19
-0.26220417 0.71341825 0.82672012 18
-0.26141927 0.71166623 0.69371521 17
nan nan nan 0
-0.25686011 0.70000958 0.47687197 28
-0.099248625 0.27062395 0.20477894 89
-0.10247339 0.27956796 0.17746192 82
-0.72186625 1.9693959 0.48970091 6
nan nan nan 0
-0.2627238 0.71870357 0.76269555 17
-0.23669837 0.64785939 0.58577782 13
nan nan nan 0
-0.25101599 0.68741989 0.42576227 32
nan nan nan 0
-0.134966 0.37001199 0.18571076 82
-3.248071 8.909481 1.4148502 4
nan nan nan 0
-0.017243601 0.0474279 4.1891141 33
-0.15769276 0.43372819 2.9343433 5
-0.16881956 0.46458453 2.3999221 31
-0.19560228 0.53858232 1.878992 31
-0.21633409 0.5959906 1.5532701 29
-0.2304543 0.6352368 1.3056558 25
-0.24386735 0.67257535 1.1233742 25
-0.25182199 0.69489241 0.961546 19
-0.084763855 0.23428524 4.1474972 9
-0.12754504 0.35272384 3.4550066 6
-0.18358767 0.50798607 2.1171494 31
-0.20550184 0.56893313 1.699196 30
-0.22528328 0.62403893 1.4356318 30
-0.23779394 0.65905392 1.2162106 26
-0.2472555 0.68565178 1.0399058 24
-0.25328392 0.70275313 0.88810551 18
-0.25849375 0.71097755 0.8232156 18
-0.25760418 0.70891613 0.69057673 17
nan nan nan 0
-0.25139213 0.69257396 0.47223437 29
-0.098303355 0.27096874 0.20477894 91
-0.10313207 0.28443369 0.17887196 95
-0.725034 1.9996117 0.49529663 9
nan nan nan 0
-0.26148316 0.72312754 0.76602101 17
-0.21794957 0.60306525 0.55045986 11
-0.23199832 0.64228874 0.4869127 21
-0.24861492 0.68829191 0.42576227 32
nan nan nan 0
-0.13697292 0.37962508 0.1880554 80
-3.2135913 8.9114485 1.413469 5
nan nan nan 0
-0.017077941 0.047487799 4.1891141 33
-0.15591486 0.43354484 2.929404 5
-0.16685243 0.46421278 2.3950267 30
-0.19321644 0.53785706 1.87422 31
-0.21425238 0.59674209 1.5532701 29
-0.22742659 0.6337831 1.3012668 25
-0.24151812 0.67342252 1.1233742 25
-0.2493948 0.69576716 0.961546 17
-0.08384826 0.23430789 4.1425052 9
-0.12613352 0.35266498 3.4500351 6
-0.18139029 0.50744027 2.1123099 31
-0.20351465 0.56964695 1.699196 30
-0.2231036 0.62482154 1.4356318 30
-0.23549196 0.65987992 1.2162106 26
-0.24384834 0.68367255 1.0359157 24
-0.25082928 0.70363295 0.88810551 18
-0.25601038 0.71187556 0.8232156 17
-0.25512803 0.70981097 0.69057673 16
nan nan nan 0
-0.24897309 0.69344729 0.47223437 30
-0.097356908 0.27131024 0.20477894 92
-0.10537744 0.29382285 0.18169203 95
-0.71804965 2.0021305 0.49529663 9
nan nan nan 0
-0.25769994 0.7205202 0.76269555 16
nan nan nan 0
-0.23265554 0.65121365 0.49197906 26
-0.24621083 0.68915552 0.42576227 33
nan nan nan 0
-0.13891438 0.3892566 0.19040003 84
-3.1758103 8.9039536 1.4107062 6
nan nan nan 0
-0.016912073 0.047547121 4.1891141 33
-0.15414017 0.43335438 2.9244649 5
-0.16523099 0.46479237 2.3950267 30
-0.19133779 0.5385282 1.87422 31
-0.21216807 0.59748632 1.5532701 29
-0.22521289 0.6345731 1.3012668 25
-0.23822522 0.67160928 1.1192414 25
-0.24696462 0.69663352 0.961546 17
-0.083029859 0.23459914 4.1425052 9
-0.12507948 0.35360563 3.4550066 6
-0.1796179 0.50807041 2.1123099 31
-0.20152496 0.57035387 1.699196 30
-0.22092119 0.62559652 1.4356318 30
-0.23318712 0.66069794 1.2162106 26
-0.2414604 0.68451959 1.0359157 23
-0.24837163 0.70450425 0.88810551 18
-0.25471905 0.71612483 0.82672012 17
-0.24873747 0.69969487 0.6811614 13
nan nan nan 0
-0.24506865 0.69013768 0.46991557 31
-0.097959816 0.27601737 0.20665196 95
-0.10595483 0.29870999 0.18310207 96
-0.69463485 1.9583285 0.48597044 12
nan nan nan 0
-0.25518331 0.72141534 0.76269555 15
nan nan nan 0
-0.23181708 0.65608633 0.49451223 28
-0.24380371 0.69001079 0.42576227 33
nan nan nan 0
-0.14240789 0.40348965 0.19391698 79
-3.1381211 8.8963051 1.4079435 7
nan nan nan 0
-0.016746001 0.047605868 4.1891141 31
-0.15262654 0.43388981 2.9244649 6
-0.16326986 0.46440572 2.3901317 30
-0.18945682 0.5391928 1.87422 31
-0.21008115 0.59822333 1.5532701 30
-0.22220327 0.63309556 1.2968777 24
-0.23587942 0.67243677 1.1192414 24
-0.24453142 0.69749123 0.961546 18
-0.082210444 0.23488753 4.1425052 8
-0.12402042 0.3545433 3.4599781 6
-0.1778433 0.50869429 2.1123099 31
-0.19896361 0.56942475 1.6945033 30
-0.21873611 0.62636387 1.4356318 30
-0.23087943 0.66150784 1.2162106 26
-0.23906952 0.68535829 1.0359157 23
-0.24591094 0.70536697 0.88810551 17
-0.25221774 0.71700966 0.82672012 16
-0.23596595 0.67118293 0.65605372 12
-0.2391433 0.68060017 0.55757779 17
-0.24265812 0.69098896 0.46991557 32
-0.096995741 0.27635762 0.20665196 95
-0.10808723 0.30813128 0.18592213 96
-0.67478687 1.9236586 0.47850949 13
nan nan nan 0
-0.25019789 0.715253 0.75604451 14
nan nan nan 0
-0.22952551 0.65689152 0.49451223 30
-0.24139364 0.69085759 0.42576227 34
nan nan nan 0
-0.14420199 0.41316265 0.19626161 79
-3.1005242 8.8885021 1.4051807 9
nan nan nan 0
-0.016579723 0.047664031 4.1891141 31
-0.15085578 0.43368602 2.9195256 5
-0.16164778 0.46497282 2.3901317 30
-0.18757352 0.53985089 1.87422 31
-0.20735078 0.59710747 1.5486677 30
-0.219992 0.63386732 1.2968777 24
-0.23353073 0.67325604 1.1192414 23
-0.24104534 0.69531214 0.95770848 17
-0.081295617 0.23490024 4.1375136 8
-0.12313057 0.35598162 3.4699211 6
-0.17606652 0.50931197 2.1123099 31
-0.19697472 0.5701158 1.6945033 30
-0.21654837 0.62712353 1.4356318 29
-0.22856893 0.66230977 1.2162106 25
-0.23667571 0.68618858 1.0359157 23
-0.24344727 0.70622098 0.88810551 17
-0.25088501 0.72125399 0.83022469 15
-0.23489976 0.67567903 0.65919214 10
-0.23402135 0.67353123 0.55209482 23
-0.24024463 0.69183177 0.46991557 32
-0.097550504 0.28107417 0.208525 96
-0.11015511 0.31757101 0.18874219 97
-0.65357959 1.8842335 0.4701159 14
nan nan nan 0
-0.24525858 0.70906472 0.74939352 13
nan nan nan 0
-0.22863886 0.66176325 0.49704543 30
-0.24046272 0.69598573 0.42786032 34
nan nan nan 0
-0.14751592 0.42744756 0.19977857 74
-3.0630198 8.8805437 1.4024179 9
nan nan nan 0
-0.016413243 0.047721617 4.1891141 33
-0.149341 0.43420997 2.9195256 5
-0.16002373 0.46553427 2.3901317 30
-0.18568796 0.54050231 1.87422 31
-0.20526524 0.59782761 1.5486677 28
-0.21777807 0.6346314 1.2968777 24
-0.2302663 0.67140538 1.1151084 23
-0.23861679 0.69614935 0.95770848 17
-0.080475159 0.23518258 4.1375136 8
-0.1220597 0.3569136 3.4748926 6
-0.1738811 0.50873399 2.1074705 30
-0.19498345 0.57079989 1.6945033 29
-0.21435799 0.62787563 1.4356318 29
-0.22541343 0.66063523 1.2119447 25
-0.23427904 0.68701053 1.0359157 22
-0.24098061 0.70706648 0.88810551 17
-0.24836582 0.72212535 0.83022469 15
-0.20976463 0.61023837 0.6027 8
-0.2357446 0.68620771 0.56031924 26
-0.23782824 0.69266617 0.46991557 33
-0.096568771 0.28141296 0.208525 98
-0.11215837 0.32702881 0.19156227 98
-0.63743687 1.8586239 0.46452019 14
nan nan nan 0
-0.23915738 0.69931781 0.73941702 12
nan nan nan 0
-0.22632749 0.6625573 0.49704543 31
-0.23803182 0.69682086 0.42786032 35
nan nan nan 0
-0.15073183 0.44176054 0.20329553 78
-3.025609 8.8724337 1.3996553 11
nan nan nan 0
-0.016246565 0.047778618 4.1891141 32
-0.14757429 0.43399301 2.9145863 5
-0.15807012 0.46512592 2.3852363 30
-0.18380012 0.54114717 1.87422 31
-0.20317717 0.59854048 1.5486677 28
-0.21556145 0.63538766 1.2968777 24
-0.22792129 0.67220503 1.1151084 23
-0.23618533 0.69697803 0.95770848 17
-0.079746254 0.23573554 4.1425052 7
-0.12098383 0.35784248 3.4798641 6
-0.17210422 0.50933784 2.1074705 30
-0.1929898 0.57147706 1.6945033 29
-0.21146883 0.62655747 1.4311305 29
-0.22310603 0.66141802 1.2119447 24
-0.23187949 0.68782419 1.0359157 22
-0.23851101 0.70790339 0.88810551 16
-0.24469554 0.71961153 0.82672012 15
-0.18508948 0.54463124 0.54620773 6
-0.23334785 0.68702632 0.56031924 27
-0.23540893 0.69349211 0.46991557 33
-0.095585868 0.28174835 0.208525 98
-0.11409689 0.33650437 0.19438232 99
-0.62305832 1.8375771 0.45985708 14
nan nan nan 0
-0.23312728 0.68953711 0.72944051 11
-0.23373826 0.69174218 0.6152094 19
-0.22539259 0.66742748 0.4995786 32
-0.235598 0.69764751 0.42786032 35
nan nan nan 0
-0.15384956 0.456101 0.20681247 77
-2.9882925 8.864172 1.3968925 13
nan nan nan 0
-0.016079687 0.047835037 4.1891141 32
-0.1458109 0.43376899 2.909647 5
-0.15644556 0.46567488 2.3852363 29
-0.18191005 0.54178548 1.87422 30
-0.20108664 0.59924603 1.5486677 28
-0.21334222 0.63613629 1.2968777 23
-0.22557345 0.67299658 1.1151084 23
-0.23375097 0.69779819 0.95770848 17
-0.078922898 0.23601246 4.1425052 7
-0.119734 0.35826263 3.4798641 6
-0.16992703 0.50874329 2.1026311 30
-0.19044739 0.57051033 1.6898105 29
-0.20928045 0.6272918 1.4311305 29
-0.22079587 0.66219282 1.2119447 24
-0.22852451 0.68577063 1.0319257 22
-0.23710977 0.71194816 0.89178067 16
-0.24104583 0.71708089 0.8232156 14
-0.18318725 0.54527402 0.54620773 6
-0.22961733 0.68387282 0.55757779 29
-0.23439603 0.69850928 0.47223437 34
-0.096075878 0.28647563 0.21039805 98
-0.1159706 0.34599733 0.19720238 99
-0.60883456 1.8164529 0.455194 14
nan nan nan 0
-0.2259849 0.67618173 0.71613854 9
-0.22620004 0.67721868 0.60343677 25
-0.22442648 0.67229921 0.50211179 32
-0.23316133 0.69846565 0.42786032 35
nan nan nan 0
-0.15840641 0.47507945 0.21150175 73
-2.9510701 8.8557568 1.3941299 15
nan nan nan 0
-0.015912615 0.047890872 4.1891141 32
-0.14405087 0.43353796 2.9047079 5
-0.1548191 0.46621811 2.3852363 29
-0.17954758 0.54100049 1.8694481 30
-0.19899365 0.59994429 1.5486677 28
-0.2111204 0.63687712 1.2968777 23
-0.2223379 0.67110854 1.1109754 22
-0.23131377 0.69860995 0.95770848 16
-0.078189172 0.23656064 4.1474972 6
-0.1184827 0.3586784 3.4798641 6
-0.16815016 0.50933337 2.1026311 30
-0.18845476 0.5711717 1.6898105 29
-0.20708951 0.6280185 1.4311305 28
-0.21766676 0.66048259 1.2076788 24
-0.22612932 0.68656421 1.0319257 21
-0.23462313 0.71277148 0.89178067 15
-0.23629227 0.71114922 0.81620651 13
nan nan nan 0
-0.22722878 0.68467021 0.55757779 29
-0.23195633 0.69932324 0.47223437 34
-0.095075302 0.28680927 0.21039805 99
-0.11928803 0.36006105 0.2014325 99
-0.61948365 1.8698602 0.46545282 18
nan nan nan 0
-0.22010979 0.6663304 0.70616198 8
-0.22383474 0.67800415 0.60343677 27
-0.22207834 0.67307854 0.50211179 33
-0.2307218 0.69927531 0.42786032 36
nan nan nan 0
-0.16131121 0.48947871 0.21501869 69
-2.9154918 8.8518925 1.3920578 16
nan nan nan 0
-0.015745347 0.047946129 4.1891141 31
-0.14205183 0.43256173 2.8948293 5
-0.15319075 0.46675569 2.3852363 30
-0.17765804 0.54162389 1.8694481 29
-0.19750683 0.60249174 1.5532701 28
-0.20815034 0.63533419 1.2924886 23
-0.21999395 0.67188054 1.1109754 22
-0.22887377 0.69941312 0.95770848 16
-0.077452593 0.23710656 4.1524887 6
-0.11722995 0.35908976 3.4798641 6
-0.16637123 0.5099172 2.1026311 30
-0.18645987 0.57182604 1.6898105 29
-0.20489606 0.62873751 1.4311305 28
-0.21535991 0.66123837 1.2076788 23
-0.22279873 0.68448406 1.0279356 21
-0.23108493 0.71036214 0.88810551 15
-0.23158312 0.70519328 0.80919743 11
-0.22064424 0.67227918 0.65291524 12
-0.22483744 0.6854592 0.55757779 30
-0.23089375 0.70433807 0.47455317 34
-0.09551692 0.29154485 0.21227106 99
-0.12250863 0.37415195 0.20566258 99
-0.61601001 1.881348 0.46731806 18
nan nan nan 0
-0.21430625 0.65644646 0.69618553 7
-0.22146669 0.67878133 0.60343677 28
-0.22106391 0.677948 0.50464499 33
-0.22968647 0.70439124 0.42995837 36
nan nan nan 0
-0.16562259 0.50852549 0.21970797 65
-2.8799772 8.8478889 1.3899858 17
nan nan nan 0
-0.015564417 0.047959294 4.184114 31
-0.14006132 0.43157682 2.8849509 5
-0.15156053 0.46728757 2.3852363 30
-0.17530604 0.54082078 1.8646759 29
-0.19540253 0.60317749 1.5532701 29
-0.20593135 0.6360569 1.2924886 22
-0.21678099 0.66996706 1.1068425 22
-0.22643097 0.70020771 0.95770848 15
-0.076624461 0.23737547 4.1524887 6
-0.11581211 0.35898948 3.4748926 6
-0.16459028 0.51049483 2.1026311 30
-0.18393344 0.57083088 1.6851177 29
-0.20270011 0.62944889 1.4311305 28
-0.21225145 0.65950346 1.2034129 23
-0.22040808 0.68525761 1.0279356 20
-0.22756642 0.70793706 0.88443035 14
-0.22581756 0.69582117 0.79868376 10
-0.2255013 0.69525987 0.67174602 18
-0.22244336 0.68623984 0.55757779 31
-0.22843374 0.70513976 0.47455317 34
-0.09592662 0.29628703 0.21414411 99
-0.12563224 0.38826954 0.20989269 97
-0.6170004 1.906855 0.47198114 20
nan nan nan 0
-0.21086715 0.65363705 0.69286001 7
-0.21785563 0.67570323 0.60049355 29
-0.22001815 0.68281859 0.50717819 34
-0.22722629 0.70518869 0.42995837 36
nan nan nan 0
-0.1698029 0.52760816 0.22439724 59
-2.8445258 8.8437462 1.3879137 20
-2.9262264 9.1032057 0.47939557 2
-0.015396914 0.04801333 4.184114 30
-0.13784218 0.42984343 2.8701329 5
-0.14961773 0.46684417 2.3803411 30
-0.17341717 0.5414294 1.8646759 30
-0.19329588 0.60385591 1.5532701 29
-0.20298009 0.63449079 1.2880995 22
-0.21444106 0.67071968 1.1068425 21
-0.2239854 0.70099384 0.95770848 15
-0.075795405 0.23764148 4.1524887 6
-0.11455829 0.35939154 3.4748926 6
-0.16280732 0.51106632 2.1026311 30
-0.18193974 0.57146943 1.6851177 28
-0.20050168 0.63015264 1.4311305 28
-0.20994806 0.66024029 1.2034129 23
-0.21801473 0.68602282 1.0279356 20
-0.22406767 0.70549595 0.88075519 14
-0.2179423 0.67962551 0.78116101 9
-0.22307302 0.69604278 0.67174602 23
-0.22004659 0.68701214 0.55757779 31
-0.22732145 0.71015173 0.47687197 34
-0.09630435 0.30103552 0.21601713 99
-0.12865873 0.40241337 0.21412277 93
-0.61482823 1.923034 0.47477901 21
nan nan nan 0
-0.21198611 0.66504139 0.70283651 7
-0.21549566 0.67645961 0.60049355 30
-0.21763334 0.68358243 0.50717819 34
-0.22476332 0.70597762 0.42995837 37
nan nan nan 0
-0.17237899 0.54209387 0.22791418 61
-2.8076389 8.8347435 1.385151 23
-2.8944325 9.1133652 0.47939557 2
-0.015229221 0.04806678 4.184114 30
-0.137749 0.43476623 2.8997686 5
-0.14798723 0.46736363 2.3803411 29
-0.17107581 0.54060829 1.8599039 30
-0.19059773 0.60266423 1.5486677 29
-0.20076406 0.63519549 1.2880995 22
-0.21125089 0.6687808 1.1027095 20
-0.2205722 0.69871497 0.95387095 14
-0.075052172 0.23817994 4.1574802 5
-0.11346321 0.36029771 3.4798641 5
-0.16064499 0.51043242 2.0977917 30
-0.17942606 0.5704549 1.6804249 28
-0.19830081 0.63084865 1.4311305 27
-0.20764211 0.66096914 1.2034129 22
-0.21561874 0.68677962 1.0279356 19
-0.2195738 0.69980448 0.87340486 12
-0.21233721 0.67018306 0.77064741 7
-0.22064202 0.69681722 0.67174602 26
-0.21764714 0.68777609 0.55757779 32
-0.22484115 0.7109409 0.47687197 35
-0.098047212 0.31021062 0.21976319 97
-0.13158797 0.41658288 0.21835288 93
-0.60959142 1.9298525 0.47571161 23
nan nan nan 0
-0.21302795 0.6764614 0.71281302 12
-0.21313305 0.67720765 0.60049355 31
-0.21653928 0.6884501 0.50971133 34
-0.22229764 0.70675784 0.42995837 37
nan nan nan 0
-0.17631273 0.56124103 0.23260346 55
-2.7723327 8.8303156 1.3830791 26
-2.855125 9.0995789 0.47838792 2
-0.015061346 0.048119649 4.184114 29
-0.13646266 0.43598595 2.9047079 5
-0.14605094 0.4669055 2.3754458 29
-0.16918766 0.54120207 1.8599039 29
-0.1879103 0.60146111 1.5440651 26
-0.19854559 0.63589239 1.2880995 21
-0.20891511 0.66951412 1.1027095 20
-0.21717767 0.69642073 0.95003349 13
-0.074220315 0.23844047 4.1574802 5
-0.11220485 0.36069155 3.4798641 5
-0.15886229 0.51099008 2.0977917 30
-0.1774337 0.57107776 1.6804249 28
-0.19545197 0.62945807 1.4266293 27
-0.20533365 0.66168988 1.2034129 22
-0.21322013 0.68752807 1.0279356 19
-0.21512243 0.69409025 0.86605453 11
-0.2025397 0.64709622 0.74611562 6
-0.21820833 0.6975832 0.67174602 27
-0.21649262 0.69252247 0.56031924 32
-0.22235814 0.71172136 0.47687197 36
-0.098345488 0.31497625 0.22163624 97
-0.13584872 0.43535686 0.223993 89
-0.6057778 1.9413472 0.47757688 24
nan nan nan 0
-0.21399264 0.68789661 0.72278953 17
-0.21076788 0.67794752 0.60049355 31
-0.21413481 0.68920183 0.50971133 35
-0.22117586 0.71186376 0.43205646 37
nan nan nan 0
-0.17867427 0.57577974 0.2361204 52
-2.7356248 8.8210192 1.3803163 26
-2.811512 9.0713139 0.47677568 3
-0.014893284 0.04817193 4.184114 29
-0.13539895 0.43794432 2.9145863 4
-0.14442024 0.46741247 2.3754458 29
-0.16685711 0.54036319 1.855132 29
-0.1846575 0.59837979 1.53486 27
-0.1956189 0.6342929 1.2837105 21
-0.20657681 0.67023921 1.1027095 20
-0.21285832 0.69104809 0.94235849 13
-0.073387548 0.2386981 4.1574802 5
-0.11094511 0.36108103 3.4798641 5
-0.15670867 0.51033992 2.0929525 29
-0.17493291 0.57004386 1.6757323 28
-0.19325356 0.63013643 1.4266293 27
-0.20225839 0.65990913 1.1991469 21
-0.2108189 0.68826818 1.0279356 18
-0.21170598 0.69159532 0.86237937 9
-0.20133305 0.65120637 0.74962014 6
-0.21577197 0.69834059 0.67174602 28
-0.21407397 0.69327396 0.56031924 33
-0.21987242 0.71249324 0.47687197 36
-0.098611653 0.31974763 0.22350928 100
-0.138567 0.44958118 0.22822312 75
-0.60044438 1.9481443 0.47850949 25
nan nan nan 0
-0.21378338 0.69577754 0.72944051 21
-0.20840012 0.67867911 0.60049355 32
-0.21172774 0.68994504 0.50971133 35
-0.21868965 0.7126314 0.43205646 37
nan nan nan 0
-0.1809364 0.59034181 0.23963737 44
-2.7004664 8.8163109 1.3782443 27
-2.7827551 9.0906277 0.47717875 3
-0.014725043 0.048223626 4.184114 29
-0.13409632 0.43915737 2.9195256 4
-0.14249061 0.46693993 2.3705506 29
-0.16496985 0.54094231 1.855132 29
-0.18199807 0.59715194 1.5302576 26
-0.1934036 0.63497192 1.2837105 21
-0.20423597 0.67095625 1.1027095 18
-0.20857911 0.68565392 0.9346835 12
-0.072553888 0.23895282 4.1574802 5
-0.10952925 0.36095601 3.4748926 5
-0.1549263 0.51088381 2.0929525 29
-0.17294203 0.57065105 1.6757323 27
-0.19105281 0.63080716 1.4266293 26
-0.19995366 0.66061109 1.1991469 21
-0.20841511 0.68899983 1.0279356 18
-0.20830958 0.68908501 0.85870421 8
-0.20634905 0.67578065 0.77415192 9
-0.21219695 0.69536668 0.66860753 29
-0.21165267 0.69401699 0.56031924 33
-0.21738401 0.71325636 0.47687197 36
-0.09749493 0.32008991 0.22350928 100
-0.14258449 0.46841875 0.23386323 75
-0.59650141 1.959627 0.48037472 26
nan nan nan 0
-0.21243753 0.70009243 0.73276603 25
-0.20602982 0.67940241 0.60049355 32
-0.2093181 0.69067997 0.50971133 36
-0.21751711 0.71773398 0.43415451 37
nan nan nan 0
-0.183099 0.60492629 0.24315432 45
-2.66394 8.8067236 1.3754815 30
-2.7379949 9.0572462 0.47536495 3
-0.014556621 0.048274733 4.184114 29
-0.13256258 0.43962279 2.9195256 4
-0.14085981 0.46743447 2.3705506 29
-0.16265017 0.54008555 1.85036 29
-0.17991251 0.59778363 1.5302576 26
-0.19118595 0.63564312 1.2837105 21
-0.20189267 0.67166513 1.1027095 18
-0.20526233 0.68330812 0.93084598 11
-0.071719348 0.23920462 4.1574802 5
-0.10826861 0.36133614 3.4748926 5
-0.15278144 0.51021737 2.0881128 29
-0.17094903 0.57125127 1.6757323 27
-0.18822598 0.62938458 1.4221282 26
-0.19764647 0.66130501 1.1991469 21
-0.20687117 0.69261044 1.0319257 18
-0.20590296 0.68980789 0.85870421 8
-0.20810716 0.69015443 0.7881701 15
-0.20976835 0.69610316 0.66860753 29
-0.21043459 0.69875544 0.5630607 33
-0.21489295 0.71401083 0.47687197 36
-0.097712293 0.32486773 0.2253823 101
-0.14509124 0.4826957 0.23809335 74
-0.59107149 1.9664018 0.48130736 27
nan nan nan 0
-0.21106414 0.70440644 0.73609149 27
-0.20481649 0.68398964 0.60343677 32
-0.20690589 0.69140637 0.50971133 36
-0.21501042 0.71848887 0.43415451 37
nan nan nan 0
-0.18377003 0.61487585 0.24549896 43
-2.6303477 8.8064785 1.3741001 31
-2.6935019 9.0236635 0.47355118 10
-0.014400473 0.048367068 4.1891141 29
-0.13102719 0.44008285 2.9195256 4
-0.13922732 0.46792331 2.3705506 29
-0.16076392 0.54065001 1.85036 29
-0.17726825 0.59653527 1.525655 26
-0.18896598 0.63630664 1.2837105 20
-0.19874623 0.66966802 1.0985764 18
-0.20105308 0.67787451 0.92317086 9
-0.070801988 0.23917671 4.1524887 5
-0.10700665 0.36171186 3.4748926 5
-0.15099953 0.51074755 2.0881128 28
-0.16846499 0.57018954 1.6710395 27
-0.18602785 0.63003778 1.4221282 26
-0.19533686 0.66199088 1.1991469 21
-0.20445222 0.69332832 1.0319257 18
-0.20445213 0.69377428 0.86237937 8
-0.20874973 0.70113057 0.79868376 19
-0.20733725 0.69683117 0.66860753 30
-0.20799422 0.69948572 0.5630607 33
-0.21239927 0.71475661 0.47687197 37
-0.097897463 0.32965091 0.22725534 100
-0.14886481 0.50159442 0.24373347 68
-0.58560139 1.9731621 0.48223996 27
-2.638052 8.8945084 0.92583704 12
-0.20860402 0.70513892 0.73609149 28
-0.20242767 0.68470037 0.60343677 33
-0.20571263 0.69625854 0.51224452 36
-0.21378708 0.72358751 0.43625253 38
nan nan nan 0
-0.18574941 0.62949926 0.2490159 40
-2.5953896 8.8013573 1.3720281 32
-2.649277 8.9898815 0.47173738 20
-0.014231553 0.048417043 4.1891141 29
-0.12949021 0.44053754 2.9195256 4
-0.13730614 0.46742949 2.3656554 29
-0.15887572 0.54120785 1.85036 29
-0.17518488 0.59715044 1.525655 26
-0.18674371 0.63696235 1.2837105 20
-0.19640745 0.6703577 1.0985764 18
-0.19778495 0.67549616 0.9193334 9
-0.070047647 0.23969948 4.1574802 5
-0.10559396 0.36157152 3.4699211 4
-0.14921576 0.51127154 2.0881128 28
-0.16647363 0.57077408 1.6710395 27
-0.18382749 0.6306833 1.4221282 25
-0.1930249 0.6626687 1.1991469 21
-0.20203081 0.6940378 1.0319257 17
-0.20297612 0.69773895 0.86605453 13
-0.20831247 0.70869803 0.80569285 23
-0.20490359 0.69755065 0.66860753 30
-0.20672907 0.70421958 0.56580216 34
-0.20990302 0.71549374 0.47687197 37
-0.099354684 0.33888796 0.23100141 99
-0.15250818 0.52052522 0.24937361 59
-0.57871026 1.9751942 0.48223996 28
-2.6041894 8.894104 0.92494285 24
-0.20614137 0.70586276 0.73609149 29
-0.20003638 0.68540281 0.60343677 33
-0.20328099 0.69697237 0.51224452 36
-0.21125999 0.72432935 0.43625253 38
nan nan nan 0
-0.1862696 0.63947725 0.25136054 39
-2.561883 8.8008537 1.3706467 34
-2.6067162 8.9606972 0.47012514 30
-0.014062459 0.048466425 4.1891141 26
-0.12795167 0.44098687 2.9195256 4
-0.13567367 0.46790597 2.3656554 28
-0.1569856 0.54175919 1.85036 29
-0.17309937 0.59775829 1.525655 25
-0.18451914 0.63761032 1.2837105 20
-0.19406627 0.67103922 1.0985764 18
-0.19453588 0.67310321 0.91549587 8
-0.069210514 0.23994254 4.1574802 5
-0.1043312 0.36193788 3.4699211 4
-0.14708225 0.51058143 2.0832736 29
-0.16400285 0.56969351 1.6663467 27
-0.18162486 0.63132113 1.4221282 25
-0.1907106 0.66333842 1.1991469 20
-0.19877486 0.69184262 1.0279356 17
-0.20053934 0.69844317 0.86605453 16
-0.20583737 0.70942086 0.80569285 26
-0.20246744 0.69826168 0.66860753 31
-0.20426963 0.70493698 0.56580216 34
-0.20863637 0.72047704 0.47919077 37
-0.099459864 0.34368595 0.23287442 99
-0.15468842 0.53487903 0.2536037 54
-0.57181203 1.9772023 0.48223996 29
-2.5662138 8.8792181 0.92270744 29
-0.20367619 0.70657808 0.73609149 29
-0.19876155 0.68998104 0.60637993 34
-0.20084685 0.69767773 0.51224452 36
-0.20873031 0.72506237 0.43625253 38
nan nan nan 0
-0.18672235 0.64946634 0.25370517 39
-2.5284119 8.8002234 1.3692653 35
-2.5712855 8.9553356 0.46952054 30
-0.013893194 0.048515216 4.1891141 26
-0.12641156 0.44143081 2.9195256 4
-0.13375939 0.46739778 2.3607602 28
-0.1546831 0.54086876 1.845588 28
-0.17101175 0.59835881 1.525655 25
-0.18229234 0.63825047 1.2837105 20
-0.19172272 0.67171246 1.0985764 18
-0.1930643 0.67686045 0.9193334 8
-0.06837254 0.24018267 4.1574802 6
-0.10321301 0.36281258 3.4748926 4
-0.14529909 0.51109177 2.0832736 29
-0.16201326 0.57026249 1.6663467 27
-0.17942004 0.63195127 1.4221282 25
-0.18839394 0.66400015 1.1991469 20
-0.1955367 0.68963331 1.0239457 16
-0.19810009 0.699139 0.86605453 19
-0.2033598 0.71013504 0.80569285 27
-0.20002881 0.69896418 0.66860753 31
-0.20295745 0.70966595 0.56854367 35
-0.20612016 0.72120088 0.47919077 37
-0.10080589 0.35294628 0.23662049 99
-0.15677021 0.54925418 0.25783381 56
-0.56355864 1.9744626 0.48130736 29
-2.528374 8.8641777 0.92047209 30
-0.20018688 0.70369339 0.73276603 30
-0.19635186 0.69067061 0.60637993 34
-0.19958839 0.70252126 0.51477772 37
-0.20619811 0.72578651 0.43625253 38
nan nan nan 0
-0.18710756 0.65946627 0.25604981 39
-2.4949765 8.799469 1.367884 36
-2.537286 8.9546423 0.46911752 31
-0.013723761 0.048563413 4.1891141 27
-0.12486991 0.44186938 2.9195256 3
-0.13212708 0.46786183 2.3607602 28
-0.15279418 0.54140532 1.845588 28
-0.16892204 0.59895217 1.525655 25
-0.17941365 0.63657784 1.2793214 20
-0.18937685 0.67237765 1.0985764 17
-0.19156887 0.68061554 0.92317086 8
-0.067689866 0.24097574 4.1674638 5
-0.10180186 0.36265746 3.4699211 4
-0.14351417 0.51159579 2.0832736 28
-0.16002169 0.5708245 1.6663467 27
-0.17721303 0.63257372 1.4221282 25
-0.18537191 0.66214222 1.194881 19
-0.19312824 0.69031167 1.0239457 15
-0.19565843 0.69982624 0.86605453 23
-0.1999099 0.70740867 0.80218834 27
-0.19758776 0.69965816 0.66860753 32
-0.20047903 0.71037006 0.56854367 35
-0.20360145 0.72191602 0.47919077 37
-0.10208846 0.3622202 0.24036655 98
-0.16005403 0.5682677 0.26347393 49
-0.55666304 1.9764179 0.48130736 30
-2.4906707 8.8489809 0.91823673 28
-0.19772929 0.7043879 0.73276603 30
-0.19503149 0.69524354 0.60932308 34
-0.19713491 0.70321363 0.51477772 37
-0.20366339 0.72650182 0.43625253 39
nan nan nan 0
-0.18742524 0.66947669 0.25839445 39
-2.4615772 8.7985849 1.3665026 37
-2.5019774 8.9490108 0.46851289 31
-0.013554158 0.048611026 4.1891141 27
-0.12332673 0.44230255 2.9195256 3
-0.1304931 0.46832019 2.3607602 28
-0.15090337 0.54193538 1.845588 28
-0.16683029 0.59953815 1.525655 25
-0.17719047 0.63720018 1.2793214 20
-0.18778209 0.6757459 1.1027095 17
-0.19004953 0.68436849 0.92700839 12
-0.066925406 0.24148877 4.1724553 5
-0.10053534 0.36301059 3.4699211 4
-0.14172749 0.51209366 2.0832736 27
-0.15802817 0.5713796 1.6663467 27
-0.17500386 0.63318843 1.4221282 25
-0.18305947 0.66278529 1.194881 19
-0.18991572 0.68807697 1.0199556 13
-0.19231299 0.69723684 0.86237937 25
-0.19648153 0.70466703 0.79868376 28
-0.19514428 0.70034361 0.66860753 32
-0.19911979 0.71509373 0.57128513 35
-0.20226781 0.72688997 0.48150957 38
-0.10330748 0.37150726 0.24411261 97
-0.16192257 0.58268881 0.26770404 49
-0.55107582 1.9830817 0.48223996 32
-2.4531038 8.8336287 0.91600126 26
-0.19526932 0.70507377 0.73276603 31
-0.19260344 0.69592005 0.60932308 34
-0.19582815 0.70805234 0.51731086 37
-0.20112619 0.72720832 0.43625253 39
nan nan nan 0
-0.18638122 0.67481202 0.25956675 38
-2.4282141 8.7975769 1.3651212 38
-2.4680676 8.9480581 0.46810985 32
-0.013384391 0.048658043 4.1891141 26
-0.12178205 0.44273037 2.9195256 3
-0.12885757 0.46877286 2.3607602 28
-0.14901076 0.54245883 1.845588 28
-0.16473648 0.60011685 1.525655 25
-0.17496516 0.63781482 1.2793214 19
-0.18542215 0.67639726 1.1027095 17
-0.18850638 0.68811911 0.93084598 16
-0.066082045 0.24172091 4.1724553 5
-0.09926758 0.3633593 3.4699211 4
-0.13960803 0.51137263 2.078434 27
-0.1560327 0.57192773 1.6663467 27
-0.17221992 0.63169509 1.4176269 24
-0.18074481 0.66342026 1.194881 19
-0.18672115 0.68582827 1.0159656 13
-0.188988 0.69463265 0.85870421 27
-0.19402057 0.70534861 0.79868376 29
-0.19269843 0.70102048 0.66860753 32
-0.19662245 0.71578449 0.57128513 35
-0.19972923 0.72759163 0.48150957 38
-0.10568931 0.3852779 0.24973172 97
-0.16369234 0.59712952 0.27193412 44
-0.54415023 1.9849932 0.48223996 32
-2.4248855 8.8517447 0.91689545 33
-0.19182298 0.70214933 0.72944051 31
-0.19017306 0.69658816 0.60932308 35
-0.19335537 0.70873159 0.51731086 38
-0.19858651 0.72790599 0.43625253 38
nan nan nan 0
-0.18657993 0.68483794 0.26191139 38
-2.396189 8.8012209 1.3644305 38
-2.4341946 8.9469767 0.46770677 33
-0.013214462 0.048704464 4.1891141 26
-0.1202359 0.44315276 2.9195256 3
-0.12722048 0.46921983 2.3607602 28
-0.14750668 0.54441643 1.85036 28
-0.16315126 0.60257399 1.5302576 26
-0.1721122 0.63610983 1.2749323 19
-0.18232545 0.67432392 1.0985764 16
-0.18610322 0.68877298 0.93084598 18
-0.06523788 0.24195011 4.1724553 5
-0.097998612 0.36370358 3.4699211 4
-0.13782215 0.51185685 2.078434 27
-0.15403536 0.572469 1.6663467 27
-0.17001384 0.63229245 1.4176269 24
-0.17842793 0.66404712 1.194881 18
-0.18354461 0.68356568 1.0119756 13
-0.18568352 0.69201374 0.85502905 28
-0.19062345 0.70257974 0.79517925 30
-0.19025025 0.70168889 0.66860753 32
-0.19521621 0.72050238 0.57402658 35
-0.19834594 0.7325601 0.48382837 38
-0.10918701 0.40354449 0.25722387 95
-0.16536321 0.61158967 0.27616423 45
-0.53850013 1.9916227 0.4831726 33
-2.3939724 8.8601551 0.91689545 34
-0.18937086 0.70281464 0.72944051 32
-0.18774034 0.69724774 0.60932308 35
-0.19088027 0.70940226 0.51731086 38
-0.19604445 0.72859478 0.43625253 39
nan nan nan 0
-0.18671083 0.69487327 0.26425603 38
-2.3628838 8.7999659 1.3630491 39
-2.4003599 8.9457703 0.46730372 34
-0.01304437 0.048750296 4.1891141 26
-0.11888912 0.44432041 2.9244649 3
-0.12558182 0.46966103 2.3607602 28
-0.14560542 0.54492801 1.85036 27
-0.16104691 0.60313982 1.5302576 26
-0.1698907 0.63670677 1.2749323 19
-0.1799705 0.67495626 1.0985764 16
-0.18369783 0.68941838 0.93084598 22
-0.064467087 0.24245532 4.1774468 5
-0.096591569 0.36352825 3.4649496 4
-0.13603461 0.51233482 2.078434 27
-0.15203613 0.57300311 1.6663467 26
-0.16724779 0.63077778 1.4131256 24
-0.1761089 0.66466588 1.194881 18
-0.18115743 0.68420219 1.0119756 15
-0.1832668 0.69265765 0.85502905 28
-0.18816981 0.70324087 0.79517925 30
-0.18779974 0.70234865 0.66860753 33
-0.1927 0.72117937 0.57402658 35
-0.19578764 0.733248 0.48382837 38
-0.1125584 0.42184001 0.264716 95
-0.16569915 0.62143338 0.27898428 42
-0.5315448 1.9934903 0.4831726 33
-2.36303 8.8684578 0.91689545 35
-0.18691643 0.70347142 0.72944051 32
-0.18530537 0.69789881 0.60932308 35
-0.18840282 0.71006417 0.51731086 38
-0.19349997 0.72927463 0.43625253 39
nan nan nan 0
-0.18552907 0.70021927 0.26542833 37
-2.3308845 8.8033733 1.3623586 39
-2.3665628 8.9444342 0.46690065 34
-0.012874121 0.048795532 4.1891141 25
-0.11733743 0.44473267 2.9244649 2
-0.12368203 0.46911195 2.355865 28
-0.14370236 0.54543298 1.85036 27
-0.15844317 0.60180902 1.525655 24
-0.16766714 0.63729584 1.2749323 18
-0.17689788 0.67285872 1.0944436 14
-0.18047574 0.68695527 0.92700839 25
-0.063620374 0.24267888 4.1774468 4
-0.096267641 0.3674728 3.4997501 3
-0.1342454 0.51280653 2.078434 27
-0.15003505 0.57353038 1.6663467 26
-0.16504493 0.63135779 1.4131256 24
-0.1737877 0.66527659 1.194881 17
-0.17800692 0.68191487 1.0079856 17
-0.17999217 0.69001287 0.85135388 30
-0.1857139 0.70389342 0.79517925 31
-0.18534693 0.70299995 0.66860753 33
-0.19018142 0.72184765 0.57402658 36
-0.19435479 0.7382108 0.48614717 37
-0.11698287 0.44464707 0.27408114 91
-0.16718812 0.63592613 0.28321439 40
-0.52458298 1.9953336 0.4831726 34
-2.3307939 8.8718357 0.91644835 36
-0.18351349 0.7005077 0.72611505 33
-0.18389177 0.70245171 0.61226624 36
-0.1859231 0.7107175 0.51731086 38
-0.19210178 0.73433644 0.43835059 39
nan nan nan 0
-0.18554071 0.71026832 0.267773 37
-2.2988901 8.8066654 1.361668 40
-2.3328044 8.9429712 0.4664976 35
-0.012714698 0.048882406 4.1941142 24
-0.11597989 0.44589153 2.929404 2
-0.12204377 0.4695408 2.355865 27
-0.14142232 0.54448652 1.845588 28
-0.15634149 0.60235846 1.525655 23
-0.16544153 0.63787723 1.2749323 18
-0.17384207 0.67074811 1.0903106 13
-0.17807671 0.68758106 0.92700839 26
-0.062845111 0.24317901 4.1824384 4
-0.095784046 0.37090334 3.5295792 3
-0.13245454 0.51327205 2.078434 27
-0.14803214 0.57405055 1.6663467 26
-0.16229686 0.62982196 1.4086244 23
-0.17211474 0.66840476 1.1991469 17
-0.17487462 0.67961389 1.0039955 20
-0.1775825 0.69063693 0.85135388 30
-0.18235797 0.70108593 0.79167473 32
-0.18289188 0.70364261 0.66860753 33
-0.18766055 0.72250712 0.57402658 36
-0.19177675 0.73888481 0.48614717 37
-0.12124942 0.46748993 0.28344631 84
-0.16857786 0.65043682 0.2874445 40
-0.51761472 1.9971526 0.4831726 35
-2.2985623 8.8750954 0.91600126 37
-0.18106715 0.70114398 0.72611505 33
-0.18143862 0.7030893 0.61226624 36
-0.18451752 0.71553642 0.51984406 38
-0.1895373 0.73500252 0.43835059 39
nan nan nan 0
-0.18427236 0.71561873 0.26894531 37
-2.2644329 8.8002491 1.3595959 40
-2.2990849 8.9413824 0.46609452 36
-0.012543989 0.048926488 4.1941142 24
-0.11461571 0.44704631 2.9343433 2
-0.12040403 0.46996397 2.355865 27
-0.13952085 0.54497683 1.845588 27
-0.15423791 0.60290051 1.525655 23
-0.16321392 0.63845092 1.2749323 18
-0.17080317 0.6686244 1.0861777 13
-0.17488275 0.68509287 0.92317086 28
-0.06206714 0.24367666 4.1874304 4
-0.095277674 0.37433493 3.5594082 3
-0.13035223 0.51251304 2.0735946 27
-0.14560236 0.57289129 1.6616539 26
-0.16009738 0.63038462 1.4086244 22
-0.16978052 0.66900152 1.1991469 16
