# .PCD v0.7 - Point Cloud Data file format
VERSION 0.7
FIELDS x y z intensity ring
SIZE 4 4 4 4 2
TYPE F F F F U
COUNT 1 1 1 1 1
WIDTH 1244
HEIGHT 1
VIEWPOINT 0 0 0 1 0 0 0
POINTS 1244
DATA ascii
4.229022 -0.053146251 -0.073823676 10 7
4.2246165 -0.05382834 1.1320745 94 15
1.9702969 -0.027512319 -0.52799088 2 0
4.2449293 -0.060015272 0.074102923 16 8
2.2583587 -0.032323159 -0.52143651 1 1
4.2297616 -0.060539208 0.22169513 40 9
2.667783 -0.038648829 -0.51861888 1 2
4.2353649 -0.062098142 0.37058622 40 10
3.2293856 -0.047912415 -0.51154077 1 3
4.2297554 -0.063492678 0.51940715 48 11
4.1305118 -0.062002942 -0.50722027 1 4
4.2248445 -0.064156502 0.66922677 67 12
4.2293444 -0.064963169 -0.37006328 10 5
4.2420812 -0.065899372 0.82467651 65 13
4.2276759 -0.066413634 -0.22159046 10 6
4.2243481 -0.066361353 0.97538781 74 14
4.2268233 -0.06713815 -0.073788777 10 7
4.2186198 -0.067744322 1.1305215 91 15
1.9624684 -0.03391239 -0.52592033 2 0
4.2287116 -0.073812433 0.073823676 15 8
2.2855172 -0.040292874 -0.52773517 1 1
4.2375126 -0.075445682 0.22211383 35 9
2.7068903 -0.048666716 -0.52625126 1 2
4.2172074 -0.075820446 0.36901742 34 10
3.2766101 -0.059481673 -0.51904958 1 3
4.2394457 -0.077700593 0.52062589 51 11
4.13027 -0.076420732 -0.50722027 1 4
4.2324944 -0.079051115 0.67047822 60 12
4.2091713 -0.079350404 -0.36832017 10 5
4.2280846 -0.080445163 0.82200515 62 13
4.223424 -0.081093892 -0.22138111 10 6
4.2357807 -0.081331149 0.97808713 68 14
4.2305617 -0.081969574 -0.073858589 9 7
4.2164264 -0.08243189 1.130004 94 15
1.9584681 -0.041024055 -0.52488506 2 0
4.222415 -0.089184254 0.073718965 12 8
2.2775609 -0.048503477 -0.52593553 1 1
4.2392039 -0.091019303 0.2222185 27 9
2.6988428 -0.058417704 -0.52472478 1 2
4.222877 -0.091406122 0.36954033 27 10
3.236872 -0.070628799 -0.51279223 1 3
4.2232552 -0.092889205 0.51867592 46 11
4.1379008 -0.091734409 -0.50819516 1 4
4.2361264 -0.094651714 0.67110395 53 12
4.2168198 -0.094956681 -0.36901742 12 5
4.2159848 -0.095674075 0.81971544 60 13
4.2310858 -0.096755616 -0.22179982 10 6
4.2471433 -0.097122818 0.98078656 65 14
4.2262344 -0.09738268 -0.073788777 9 7
4.2122331 -0.097795628 1.1289687 94 15
1.9505793 -0.048011772 -0.52281445 2 0
4.2200608 -0.10461004 0.073684059 11 8
2.2656794 -0.056559037 -0.52323616 1 1
4.2308741 -0.10561696 0.22179982 21 9
2.7064729 -0.068035409 -0.52625126 1 2
4.2464147 -0.10748812 0.3716321 21 10
3.2642376 -0.083196685 -0.5171724 1 3
4.2228866 -0.10836758 0.51867592 47 11
4.1177111 -0.10566857 -0.50575781 2 4
4.2357702 -0.10943798 0.67110395 53 12
4.2284131 -0.10998639 -0.37006328 13 5
4.2175879 -0.11044143 0.82009715 57 13
4.2267294 -0.11141901 -0.22159046 10 6
4.2272978 -0.111434 0.97628754 65 14
4.2458587 -0.11266483 -0.074137822 9 7
4.2215223 -0.11275637 1.1315569 89 15
1.9697207 -0.055019278 -0.52799088 2 0
4.2216897 -0.11865987 0.073718965 9 8
2.2771668 -0.064402536 -0.52593553 1 1
4.2265077 -0.11953354 0.22159046 17 9
2.6983826 -0.076786645 -0.52472478 1 2
4.2460346 -0.12156916 0.3716321 19 10
3.2441986 -0.093452044 -0.51404375 1 3
4.2205195 -0.12231308 0.5184322 43 11
4.1252751 -0.11955284 -0.50673276 2 4
4.2235365 -0.12313828 0.66922677 48 12
4.2320075 -0.12412451 -0.37041187 13 5
4.2289729 -0.12477425 0.82238686 56 13
4.2263365 -0.12543474 -0.22159046 10 6
4.2288527 -0.12550941 0.97673744 55 14
4.2254739 -0.12614727 -0.073788777 9 7
4.224987 -0.1268708 1.1325922 91 15
1.9695274 -0.061550803 -0.52799088 2 0
4.219274 -0.13259603 0.073684059 8 8
2.2652543 -0.07158424 -0.52323616 1 1
4.2260647 -0.13428608 0.22159046 14 9
2.654943 -0.084362619 -0.51632917 1 2
4.231668 -0.13520345 0.37041187 17 10
3.2636142 -0.10484393 -0.5171724 1 3
4.2260427 -0.1365004 0.51916343 41 11
4.1188803 -0.13375872 -0.50600159 5 4
4.2132092 -0.13755812 0.66766238 38 12
4.2176337 -0.13770258 -0.36919171 16 5
4.2285361 -0.13879736 0.82238686 55 13
4.2139201 -0.13905385 -0.22096242 10 6
4.2283888 -0.14027011 0.97673744 56 14
4.225008 -0.14089616 -0.073788777 9 7
4.2225876 -0.14155325 1.1320745 92 15
1.9538549 -0.067888692 -0.52384979 2 0
4.2147889 -0.14718367 0.073614255 8 8
2.284466 -0.080174521 -0.52773517 1 1
4.2335539 -0.14931859 0.22200914 13 9
2.666405 -0.094044819 -0.51861888 1 2
4.219224 -0.14955045 0.36936605 14 10
3.2355907 -0.11525099 -0.51279223 1 3
4.2255406 -0.15125121 0.51916343 42 11
4.1263237 -0.1484209 -0.50697654 5 4
4.2205992 -0.15254952 0.66891384 35 12
4.2071719 -0.15206419 -0.36832017 18 5
4.2299876 -0.1536281 0.82276845 52 13
4.2293768 -0.15434505 -0.22179982 10 6
4.2298212 -0.15510049 0.9771874 48 14
4.2125001 -0.15520158 -0.073579341 10 7
4.2085543 -0.15579171 1.1284511 91 15
1.9497449 -0.074560851 -0.52281445 2 0
4.2142496 -0.16189514 0.073614255 8 8
2.2646992 -0.08739683 -0.52323616 1 1
4.235003 -0.1641729 0.22211383 11 9
2.6738892 -0.10412259 -0.52014536 1 2
4.2206669 -0.16435491 0.36954033 13 10
3.2233255 -0.12608138 -0.51091504 1 3
4.2210197 -0.16584432 0.51867592 36 11
4.1416488 -0.16344979 -0.50892639 4 4
4.223989 -0.16743772 0.66953957 34 12
4.210568 -0.16764176 -0.36866876 19 5
4.2176256 -0.16866006 0.82047874 51 13
4.224791 -0.16968514 -0.22159046 10 6
4.2292542 -0.1698644 0.9771874 39 14
4.2259188 -0.17046918 -0.073823676 10 7
4.2118454 -0.17063779 1.1294864 91 15
1.9571794 -0.08203011 -0.52488506 2 0
4.2156258 -0.1774241 0.073649161 6 8
2.2371056 -0.094544783 -0.51693749 1 1
4.2243953 -0.17927043 0.22159046 9 9
2.6577978 -0.11325354 -0.51709241 1 2
4.2299891 -0.18024744 0.37041187 11 10
3.2425776 -0.13873902 -0.51404375 1 3
4.2184005 -0.1812288 0.5184322 38 11
4.1291223 -0.17811531 -0.50746399 4 4
4.2312412 -0.1832602 0.67079103 31 12
4.211916 -0.18315971 -0.36884311 24 5
4.2248249 -0.18445984 0.82200515 46 13
4.2161598 -0.18481877 -0.22117178 10 6
4.2247095 -0.18519355 0.97628754 30 14
4.2292614 -0.18613268 -0.073893487 12 7
4.2150512 -0.18624437 1.1305215 89 15
1.9530059 -0.089027047 -0.52384979 2 0
4.2189417 -0.19305678 0.073718965 6 8
2.2406373 -0.10292238 -0.51783729 2 1
4.2157636 -0.19364865 0.22117178 9 9
2.6573863 -0.12253029 -0.51709241 2 2
4.2412415 -0.19630259 0.37145776 11 10
3.234154 -0.15025602 -0.51279223 1 3
4.2236567 -0.19696622 0.51916343 35 11
4.120544 -0.19215766 -0.50648904 8 4
4.2128162 -0.19719756 0.66797519 23 12
4.2132411 -0.19795443 -0.36901742 28 5
4.2221942 -0.19911364 0.82162356 36 13
4.2234688 -0.19991253 -0.22159046 10 6
4.2065177 -0.19911017 0.97223842 29 14
4.2126064 -0.20013528 -0.073614255 12 7
4.2220941 -0.20132457 1.1325922 87 15
1.9449817 -0.095125474 -0.52177918 2 0
4.2182784 -0.20704624 0.073718965 6 8
2.2578013 -0.11121492 -0.52188647 2 1
4.2210827 -0.20792235 0.22148579 4 9
2.6412787 -0.13056639 -0.51403946 2 2
4.2226582 -0.20947756 0.36988899 9 10
3.2375839 -0.16117647 -0.51341796 1 3
4.2269459 -0.21116939 0.51965094 35 11
4.1218667 -0.20591986 -0.50673276 8 4
4.2141128 -0.21126562 0.66828811 20 12
4.2046018 -0.2115245 -0.36832017 33 5
4.2293539 -0.21350977 0.82315004 33 13
4.220788 -0.21381591 -0.22148579 12 6
4.2097268 -0.21325557 0.97313827 21 14
4.2119198 -0.21410364 -0.073614255 12 7
4.2098274 -0.21473396 1.1294864 91 15
1.9523726 -0.10197783 -0.52384979 2 0
4.2095814 -0.22061482 0.073579341 6 8
2.2613122 -0.1189061 -0.52278626 2 1
4.2223253 -0.22276063 0.22159046 3 9
2.6486731 -0.13973819 -0.51556593 3 2
4.2139816 -0.22305797 0.36919171 9 10
3.2528121 -0.17274988 -0.51592094 2 3
4.2282043 -0.22529089 0.51989466 35 11
4.1171584 -0.22009467 -0.50624532 8 4
4.2133498 -0.22597435 0.66828811 17 12
4.1998978 -0.2252529 -0.36797154 37 5
4.2266622 -0.22742815 0.82276845 31 13
4.2240443 -0.22802666 -0.22169513 13 6
4.228416 -0.2290028 0.97763729 19 14
4.2091498 -0.2286962 -0.073579341 13 7
4.2013369 -0.22900712 1.1274159 86 15
1.9520047 -0.10879225 -0.52384979 3 0
4.2087855 -0.23530762 0.073579341 6 8
2.2550464 -0.12647147 -0.52143651 2 1
4.2255101 -0.23772232 0.22179982 3 9
2.6422887 -0.14865211 -0.51442105 4 2
4.2211347 -0.23821522 0.36988899 9 10
3.230495 -0.18287516 -0.51247936 2 3
4.2174826 -0.23948601 0.51867592 33 11
4.1361837 -0.23559377 -0.50868267 8 4
4.2223954 -0.24124366 0.66985244 16 12
4.1990862 -0.2399119 -0.36797154 39 5
4.2219224 -0.24195592 0.82200515 30 13
4.2212291 -0.24265534 -0.22159046 15 6
4.2256455 -0.24364918 0.9771874 14 14
4.2223001 -0.24419568 -0.073823676 15 7
4.1927967 -0.24322358 1.1253452 81 15
1.9477559 -0.11537687 -0.52281445 3 0
4.2179193 -0.25059056 0.073753871 8 8
2.2487552 -0.13399453 -0.52008682 3 1
4.2007303 -0.25104091 0.22054374 3 9
2.6652429 -0.15974508 -0.51900047 5 2
4.2262435 -0.25330582 0.37041187 9 10
3.2456114 -0.1950988 -0.51498228 2 3
4.2067137 -0.253609 0.51745731 30 11
4.1254287 -0.24943128 -0.50746399 9 4
4.2234998 -0.25610071 0.67016536 13 12
4.2041454 -0.25566354 -0.36849448 51 5
4.219048 -0.2573089 0.82162356 27 13
4.2103434 -0.25751564 -0.22106709 16 6
4.216989 -0.25792211 0.97538781 14 14
4.2214222 -0.25893277 -0.073823676 18 7
4.2034917 -0.25856936 1.1284511 79 15
1.9550322 -0.12300019 -0.52488506 3 0
4.2089901 -0.26554471 0.073614255 8 8
2.2540834 -0.14260486 -0.52143651 2 1
4.2037687 -0.26668859 0.2207531 3 9
2.6470058 -0.16839084 -0.51556593 6 2
4.2153449 -0.26816165 0.36954033 8 10
3.2488177 -0.20724478 -0.51560807 3 3
4.2136798 -0.26953256 0.5184322 35 11
4.1205244 -0.26429591 -0.50697654 9 4
4.220561 -0.27145201 0.66985244 13 12
4.2091446 -0.27145547 -0.36901742 55 5
4.2161174 -0.27264404 0.82124197 21 13
4.219337 -0.27359176 -0.22159046 18 6
4.2101812 -0.27299809 0.97403812 13 14
4.2064767 -0.27349517 -0.073579341 18 7
4.2082987 -0.27435121 1.130004 74 15
1.9410752 -0.12926635 -0.52126157 3 0
4.2219548 -0.28190219 0.073858589 9 8
2.2574344 -0.15112588 -0.5223363 3 1
4.2107835 -0.28189451 0.22117178 3 9
2.6346488 -0.17684071 -0.51327622 6 2
4.2183099 -0.28387746 0.36988899 8 10
3.232269 -0.21808708 -0.51310509 3 3
4.2225671 -0.28564456 0.51965094 35 11
4.1175966 -0.27854362 -0.50673276 9 4
4.2117047 -0.28564826 0.66860098 13 12
4.1982317 -0.28547058 -0.36814582 64 5
4.2288508 -0.28829414 0.82391334 16 13
4.2223411 -0.2885907 -0.22179982 19 6
4.2130904 -0.28795844 0.97493786 11 14
4.2074914 -0.28831354 -0.073614255 19 7
4.2034607 -0.28877443 1.1289687 74 15
1.9464172 -0.13610674 -0.52281445 6 0
4.2170072 -0.29562145 0.073788777 9 8
2.2744164 -0.15984052 -0.52638549 3 1
4.2257638 -0.29697654 0.22200914 3 9
2.6399231 -0.18599048 -0.51442105 7 2
4.2054205 -0.2970221 0.36884311 8 10
3.231528 -0.22880442 -0.51310509 3 3
4.2235761 -0.29978606 0.51989466 34 11
4.1146703 -0.29205599 -0.50648904 9 4
4.2107344 -0.29961318 0.66860098 13 12
4.1952748 -0.29924911 -0.36797154 70 5
4.2141638 -0.30133569 0.82124197 15 13
4.2253451 -0.3028765 -0.22200914 24 6
4.214057 -0.30206734 0.97538781 9 14
4.2105012 -0.30255115 -0.073684059 27 7
4.198627 -0.30243447 1.1279335 74 15
1.9536622 -0.14312516 -0.52488506 5 0
4.2140093 -0.30945748 0.073753871 11 8
2.2466652 -0.16537902 -0.52008682 5 1
4.2088213 -0.30981505 0.22117178 3 9
2.6529973 -0.19575505 -0.51709241 6 2
4.2123604 -0.31155398 0.36954033 9 10
3.2287815 -0.23937325 -0.51279223 5 3
4.210681 -0.31290764 0.5184322 35 11
4.1354547 -0.30731735 -0.50917011 9 4
4.2097178 -0.31357482 0.66860098 13 12
4.1962461 -0.31330782 -0.36814582 75 5
4.2111831 -0.31516218 0.82086033 13 13
4.2243176 -0.3168866 -0.22200914 28 6
4.2169185 -0.31633154 0.97628754 9 14
4.2194448 -0.31726164 -0.073858589 31 7
4.1995273 -0.31650114 1.1284511 71 15
1.9512503 -0.14945541 -0.52436739 6 0
4.2189417 -0.32388917 0.073858589 12 8
2.2383325 -0.1722303 -0.51828724 6 1
4.2157359 -0.32438323 0.22159046 3 9
2.6484187 -0.20424971 -0.51632917 8 2
4.2212358 -0.32628864 0.37041187 9 10
3.2260005 -0.2499264 -0.51247936 6 3
4.2056618 -0.32656169 0.51794475 35 11
4.1146216 -0.31949258 -0.50673276 9 4
4.2125936 -0.32783961 0.66922677 13 12
4.2031302 -0.32784116 -0.36884311 73 5
4.2062006 -0.32881925 0.82009715 13 13
4.2192612 -0.33058119 -0.22179982 36 6
4.2119608 -0.33000919 0.97538781 8 14
4.2223568 -0.33156517 -0.073928393 36 7
4.2100096 -0.33133495 1.1315569 63 15
1.956439 -0.15741135 -0.52592033 7 0
4.2176666 -0.34008631 0.073858589 15 8
2.2493091 -0.18176536 -0.52098668 6 1
4.1984744 -0.34001386 0.2207531 3 9
2.6456583 -0.21425891 -0.51594758 8 2
4.2199516 -0.34249458 0.37041187 9 10
3.2328925 -0.26295206 -0.51373082 7 3
4.2182269 -0.34383678 0.51965094 39 11
4.105392 -0.33536065 -0.50575781 11 4
4.2092743 -0.34458613 0.66891384 13 12
4.205812 -0.34430265 -0.36919171 76 5
4.2186036 -0.34609112 0.82276845 11 13
4.2179608 -0.34677953 -0.22179982 39 6
4.1989493 -0.34595427 0.97268838 6 14
4.209034 -0.34752476 -0.073718965 40 7
4.2144217 -0.34871021 1.1331098 58 15
1.940477 -0.16294639 -0.52177918 7 0
4.2244248 -0.35547736 0.073998205 16 8
2.2564282 -0.19027078 -0.52278626 6 1
4.2052226 -0.35533985 0.22117178 3 9
2.6292441 -0.22217022 -0.51289463 8 2
4.2088046 -0.35638237 0.36954033 9 10
3.2358916 -0.27456939 -0.51435655 7 3
4.2110672 -0.35805446 0.51891971 36 11
4.1121078 -0.35036319 -0.50673276 11 4
4.1982055 -0.35843703 0.66734952 13 12
4.1926727 -0.35796463 -0.36814582 78 5
4.2291069 -0.36181882 0.82505816 11 13
4.2147346 -0.36133018 -0.22169513 43 6
4.2074232 -0.36144313 0.97493786 4 14
4.1958418 -0.36118597 -0.073509537 48 7
4.2035551 -0.36258903 1.1305215 48 15
1.9321985 -0.16904545 -0.51970869 7 0
4.207221 -0.36882406 0.073718965 16 8
2.2557504 -0.19814603 -0.52278626 6 1
4.2139683 -0.37015671 0.22169513 4 9
2.6323638 -0.23169088 -0.51365787 9 2
4.2134891 -0.37159678 0.37006328 11 10
3.2211394 -0.28464589 -0.5121665 9 3
4.2216554 -0.37380216 0.52038211 38 11
4.1188335 -0.36469787 -0.50770777 11 4
4.2009282 -0.37270585 0.66797519 13 12
4.187429 -0.37224478 -0.36779723 79 5
4.216085 -0.37553385 0.82276845 11 13
4.2253838 -0.37710544 -0.22232316 52 6
4.219789 -0.37660611 0.97808713 6 14
4.2085633 -0.37634462 -0.073753871 54 7
4.1907849 -0.37549216 1.1274159 48 15
1.9393229 -0.17615095 -0.52177918 8 0
4.2039838 -0.38259247 0.073684059 22 8
2.2434366 -0.20456353 -0.52008682 7 1
4.2166963 -0.38449147 0.22190447 6 9
2.6354914 -0.24077611 -0.51442105 8 2
4.2162013 -0.38593039 0.37041187 11 10
3.2162435 -0.29496521 -0.51154077 9 3
4.2105088 -0.38689142 0.51916343 39 11
4.1215544 -0.37871766 -0.50819516 11 4
4.2114716 -0.38772109 0.66985244 13 12
4.1901388 -0.3864947 -0.36814582 81 5
4.2089515 -0.38897079 0.82162356 10 13
4.2121773 -0.39001042 -0.22169513 57 6
4.2146363 -0.39023808 0.9771874 6 14
4.2072916 -0.39029866 -0.073753871 63 7
4.1991343 -0.39028111 1.130004 40 15
1.9521917 -0.18384893 -0.52540272 8 0
4.2086644 -0.39709482 0.073788777 27 8
2.2349856 -0.21126835 -0.51828724 8 1
4.2014098 -0.39789 0.22117178 9 9
2.6444507 -0.25043988 -0.51632917 9 2
4.2148986 -0.39990968 0.37041187 11 10
3.2250805 -0.30656371 -0.51310509 10 3
4.2072268 -0.40066364 0.51891971 40 11
4.1004462 -0.39121687 -0.50575781 11 4
4.2100925 -0.40241954 0.66985244 13 12
4.1887646 -0.40111867 -0.36814582 78 5
4.2037296 -0.40255174 0.82086033 10 13
4.2108607 -0.40397632 -0.22169513 66 6
4.1977296 -0.40345597 0.97358811 6 14
4.2138658 -0.40574914 -0.073893487 66 7
4.2015924 -0.40530744 1.1310393 35 15
1.9476593 -0.19062646 -0.52436739 8 0
4.2172036 -0.41275731 0.073963299 33 8
2.2439318 -0.22001943 -0.52053672 8 1
4.1980076 -0.41235796 0.22106709 11 9
2.6278846 -0.25859249 -0.51327622 9 2
4.21737 -0.41574627 0.37076053 11 10
3.2317984 -0.31915867 -0.51435655 10 3
4.2018514 -0.41495699 0.5184322 45 11
4.0990558 -0.40552771 -0.50575781 11 4
4.1988339 -0.41613901 0.66828811 13 12
4.1913047 -0.41613153 -0.36849448 79 5
4.2178555 -0.41951102 0.82391334 11 13
4.2113395 -0.41960526 -0.22179982 72 6
4.2039795 -0.41961294 0.97538781 6 14
4.2084441 -0.42005855 -0.073823676 70 7
4.2020741 -0.42016348 1.1315569 29 15
1.948904 -0.19761881 -0.52488506 8 0
4.2216315 -0.42881766 0.074068017 39 8
2.2392328 -0.22784784 -0.51963693 8 1
4.1944809 -0.42753911 0.22096242 11 9
2.6328254 -0.26836118 -0.51442105 9 2
4.2139115 -0.43026277 0.37058622 13 10
3.2267344 -0.33003578 -0.51373082 10 3
4.2062268 -0.43096173 0.51916343 47 11
4.0975418 -0.42054877 -0.50575781 11 4
4.1913857 -0.43091965 0.66734952 13 12
4.1898265 -0.43075937 -0.36849448 79 5
4.2202711 -0.43463373 0.82467651 10 13
4.2138228 -0.43471292 -0.22200914 72 6
4.2063661 -0.43468565 0.97628754 6 14
4.2028985 -0.43506867 -0.073753871 72 7
4.2005057 -0.43556198 1.1315569 26 15
1.9385958 -0.20341255 -0.52229685 9 0
4.2022099 -0.44167003 0.073753871 38 8
2.246176 -0.23647897 -0.52143651 9 1
4.2048802 -0.4434348 0.22159046 14 9
2.6377296 -0.27816752 -0.51556593 9 2
4.2024765 -0.44392291 0.36971465 14 10
3.2216339 -0.3408815 -0.51310509 10 3
4.2106185 -0.44626921 0.51989466 48 11
4.099997 -0.43526846 -0.50624532 11 4
4.1977129 -0.44638318 0.66860098 13 12
4.1803722 -0.44453916 -0.36779723 81 5
4.2187281 -0.44936261 0.82467651 10 13
4.2182374 -0.45005494 -0.22232316 75 6
4.2086983 -0.44978011 0.9771874 9 14
4.2033424 -0.44994971 -0.073788777 75 7
4.1874347 -0.44898611 1.1284511 19 15
1.9417151 -0.21059489 -0.52333212 9 0
4.2026305 -0.45655173 0.073788777 48 8
2.2337129 -0.24305333 -0.51873708 9 1
4.2093439 -0.45802441 0.22190447 16 9
2.6445496 -0.28822404 -0.51709241 9 2
4.2088237 -0.45945445 0.37041187 17 10
3.2125695 -0.35126618 -0.51185364 10 3
4.2110085 -0.46118045 0.52013838 50 11
4.1023989 -0.45001036 -0.50673276 11 4
4.206028 -0.46137786 0.67016536 15 12
4.1787949 -0.45912871 -0.36779723 81 5
4.2054253 -0.46279746 0.82238686 10 13
4.2067146 -0.46368244 -0.22179982 82 6
4.2071028 -0.46446845 0.9771874 9 14
4.2018275 -0.46388602 -0.073788777 79 7
4.1897635 -0.46329433 1.1294864 17 15
1.9524873 -0.21866147 -0.526438 9 0
4.1991057 -0.47026306 0.073753871 55 8
2.2290215 -0.2500248 -0.51783729 9 1
4.2077193 -0.47271493 0.22190447 19 9
2.6532819 -0.29855111 -0.51900047 9 2
4.2071943 -0.47414318 0.37041187 19 10
3.2270908 -0.36368728 -0.51435655 10 3
4.1976209 -0.4738062 0.51867592 53 11
4.0929942 -0.46271995 -0.50575781 11 4
4.2063541 -0.47627908 0.67047822 15 12
4.1850863 -0.47461072 -0.36849448 81 5
4.2077689 -0.47718304 0.82315004 11 13
4.1952314 -0.47650284 -0.22127645 87 6
4.2036028 -0.47819683 0.97673744 11 14
4.2081294 -0.47945577 -0.073928393 81 7
4.1977172 -0.4790116 1.1320745 16 15
1.9498323 -0.22491357 -0.52592033 10 0
4.2093577 -0.48629481 0.073963299 59 8
2.2261994 -0.25758007 -0.51738745 9 1
4.1981077 -0.48648015 0.22148579 22 9
2.6366761 -0.30554014 -0.51594758 9 2
4.2095571 -0.48855153 0.37076053 22 10
3.2218773 -0.37449354 -0.51373082 10 3
4.2058001 -0.48960343 0.51989466 54 11
4.0874104 -0.47654459 -0.50527036 9 4
4.1968184 -0.49004269 0.66922677 19 12
4.183404 -0.48921648 -0.36849448 79 5
4.2080274 -0.49209601 0.82353163 11 13
4.1975102 -0.49160874 -0.22148579 87 6
4.1864243 -0.49105111 0.97313827 11 14
4.1945143 -0.49274212 -0.073718965 84 7
4.201776 -0.49433872 1.1336274 14 15
1.9432398 -0.23137335 -0.52436739 9 0
4.2155776 -0.50193101 0.074102923 66 8
2.2252867 -0.26534936 -0.51738745 9 1
4.2003498 -0.50160491 0.22169513 30 9
2.6316395 -0.31473571 -0.51518428 9 2
4.1998253 -0.50302929 0.37006328 34 10
3.2145989 -0.38559401 -0.51279223 11 3
4.2080073 -0.50475425 0.52038211 60 11
4.0857224 -0.49080938 -0.50527036 11 4
4.1911592 -0.50421739 0.66860098 24 12
4.175736 -0.50310129 -0.36797154 82 5
4.2139921 -0.50845665 0.82505816 11 13
4.2095594 -0.50866723 -0.2222185 94 6
4.1923347 -0.50732821 0.97493786 13 14
4.1927681 -0.50738072 -0.073718965 84 7
4.1961889 -0.50853777 1.1325922 14 15
1.9270805 -0.23627432 -0.5202263 10 0
4.2037849 -0.51615995 0.073928393 67 8
2.2417066 -0.27564412 -0.52143651 10 1
4.2064123 -0.51797307 0.22211383 39 9
2.6402674 -0.32511964 -0.51709241 11 2
4.2019982 -0.51817399 0.37041187 37 10
3.2132335 -0.39681271 -0.51279223 12 3
4.2041593 -0.5199303 0.52013838 64 11
4.0917759 -0.50675696 -0.50624532 11 4
4.201045 -0.52103418 0.67047822 28 12
4.1719775 -0.51742899 -0.36779723 81 5
4.2121916 -0.52316314 0.82505816 11 13
4.2117224 -0.52385128 -0.22242783 96 6
4.2002077 -0.5231635 0.9771874 14 14
4.1948495 -0.52323967 -0.073788777 91 7
4.1885457 -0.5231958 1.1310393 13 15
1.943494 -0.24517579 -0.52488506 12 0
4.1940227 -0.52982819 0.073788777 72 8
2.2291307 -0.28199998 -0.51873708 11 1
4.2164674 -0.53415906 0.22274184 48 9
2.6371691 -0.33408719 -0.51671082 9 2
4.2041173 -0.5333401 0.37076053 42 10
3.2079096 -0.4075287 -0.5121665 11 3
4.1964107 -0.53385085 0.51940715 66 11
4.0939207 -0.52153862 -0.50673276 11 4
4.210958 -0.53719527 0.67235541 34 12
4.1780515 -0.53299737 -0.36849448 81 5
4.190865 -0.53537536 0.82124197 12 13
4.1960001 -0.53677571 -0.22169513 90 6
4.2002883 -0.53806937 0.97763729 17 14
4.2009311 -0.53889692 -0.073928393 91 7
4.190526 -0.53830564 1.1320745 13 15
1.9426264 -0.25195834 -0.52488506 12 0
4.2020626 -0.54575258 0.073963299 74 8
2.2204032 -0.28877407 -0.51693749 10 1
4.2008085 -0.54633534 0.22200914 55 9
2.6320932 -0.34278351 -0.51594758 9 2
4.1963034 -0.54723907 0.37023759 48 10
3.2045085 -0.41846812 -0.51185364 12 3
4.1866484 -0.54746628 0.5184322 70 11
4.080265 -0.53427941 -0.50527036 11 4
4.211112 -0.55141282 0.67266828 39 12
4.1761656 -0.54757816 -0.36849448 79 5
4.1987038 -0.55127889 0.82315004 12 13
4.1941009 -0.5514192 -0.22169513 100 6
4.1867924 -0.5512017 0.97493786 19 14
4.199121 -0.5528248 -0.073928393 94 7
4.1887178 -0.55219889 1.1320745 13 15
1.9455647 -0.25924817 -0.52592033 11 0
4.2041936 -0.56021237 0.074033104 74 8
2.2252281 -0.29690883 -0.51828724 9 1
4.1949167 -0.56046653 0.22179982 61 9
2.6347725 -0.3524898 -0.51671082 9 2
4.2042413 -0.5632062 0.37110916 56 10
3.2050612 -0.42935464 -0.5121665 11 3
4.1907125 -0.56213844 0.51916343 75 11
4.0745363 -0.54727858 -0.50478286 11 4
4.2013302 -0.56505573 0.67141682 41 12
4.1781778 -0.56268424 -0.36884311 81 5
4.1929612 -0.56467515 0.82238686 15 13
4.1902704 -0.56505734 -0.22159046 94 6
4.1849413 -0.56508249 0.97493786 19 14
4.189239 -0.56640738 -0.073788777 91 7
4.1905942 -0.56733537 1.1331098 13 15
1.9370382 -0.2646524 -0.52384979 11 0
4.2061758 -0.57542646 0.074102923 82 8
2.2299705 -0.30546796 -0.51963693 10 1
4.2048073 -0.5767346 0.22242783 66 9
2.6258087 -0.36015797 -0.51518428 9 2
4.1964288 -0.57633162 0.37058622 65 10
3.2133276 -0.44188535 -0.51373082 11 3
4.1965909 -0.57784641 0.52013838 75 11
4.0667019 -0.56068474 -0.50405163 12 4
4.1915054 -0.57863718 0.67016536 45 12
4.1762891 -0.57653654 -0.36884311 79 5
4.1967988 -0.58011436 0.82353163 15 13
4.1981645 -0.5810498 -0.22211383 100 6
4.1848741 -0.5799548 0.97538781 27 14
4.1832747 -0.5804773 -0.073718965 87 7
4.1905017 -0.58222562 1.1336274 11 15
1.9284499 -0.27033955 -0.52177918 11 0
4.1843386 -0.58732563 0.073753871 79 8
2.2346799 -0.31406379 -0.52098668 9 1
4.2067237 -0.59196526 0.22263718 73 9
2.6264796 -0.36959514 -0.51556593 10 2
4.1884727 -0.59014243 0.37006328 63 10
3.2000296 -0.45144355 -0.51185364 10 3
4.2043762 -0.59388 0.52135712 77 11
4.0765128 -0.5765447 -0.50551409 12 4
4.1972833 -0.59437257 0.67141682 57 12
4.1624146 -0.5894348 -0.36779723 81 5
4.1947479 -0.59476042 0.82353163 16 13
4.2079749 -0.59738505 -0.22274184 100 6
4.1886115 -0.59538192 0.97673744 29 14
4.185183 -0.59563965 -0.073788777 87 7
4.1827059 -0.5960319 1.1320745 13 15
1.9294068 -0.27734429 -0.52229685 11 0
4.1842422 -0.60221303 0.073788777 81 8
2.2258546 -0.32075056 -0.51918703 9 1
4.2066088 -0.60693109 0.22274184 81 9
2.6310031 -0.37960207 -0.51671082 10 2
4.190331 -0.60532904 0.37041187 73 10
3.1906142 -0.46147993 -0.51060218 11 3
4.1845961 -0.60599184 0.51916343 75 11
4.0784044 -0.59134054 -0.50600159 12 4
4.1990929 -0.60958779 0.67204249 57 12
4.1761055 -0.6062507 -0.36919171 79 5
4.177104 -0.60714 0.82047874 17 13
4.188076 -0.60948128 -0.22179982 94 6
4.2077208 -0.6130901 0.98168641 37 14
4.1909928 -0.61139971 -0.073928393 91 7
4.1825118 -0.61090797 1.1325922 11 15
1.9437168 -0.28632987 -0.526438 12 0
4.1880493 -0.61769038 0.073893487 79 8
2.2247214 -0.32851827 -0.51918703 9 1
4.1965618 -0.62044275 0.22232316 82 9
2.6335464 -0.38935795 -0.517474 9 2
4.1941051 -0.62082762 0.37093481 79 10
3.1948459 -0.4734832 -0.51154077 11 3
4.1804919 -0.62030381 0.51891971 105 11
4.0645347 -0.60382307 -0.50453913 12 4
4.2028008 -0.62511343 0.67298114 63 12
4.1739635 -0.62082428 -0.36919171 79 5
4.1827264 -0.6228739 0.82200515 22 13
4.1898737 -0.62468565 -0.22200914 96 6
4.1843529 -0.62460911 0.97673744 42 14
4.1967449 -0.62720764 -0.074068017 90 7
4.1918173 -0.6272192 1.135698 11 15
1.9484363 -0.29397762 -0.52799088 12 0
4.2036629 -0.63499385 0.074207634 85 8
2.223561 -0.33628201 -0.51918703 9 1
4.1943703 -0.63508767 0.22232316 89 9
2.616642 -0.39619705 -0.51442105 9 2
4.1958523 -0.63606125 0.37128347 78 10
3.1912208 -0.48433608 -0.51122791 11 3
4.1802635 -0.63519078 0.51916343 101 11
4.0663271 -0.6186043 -0.50502658 12 4
4.1947346 -0.63888788 0.67204249 64 12
4.1716604 -0.63611847 -0.36919171 79 5
4.1921716 -0.63924617 0.82429492 27 13
4.1916165 -0.63991004 -0.2222185 100 6
4.1782947 -0.63862264 0.97583771 47 14
4.1826692 -0.64003825 -0.073858589 90 7
4.1781449 -0.64009225 1.1325922 11 15
1.9320723 -0.29875532 -0.52384979 12 0
4.1935163 -0.64844126 0.074068017 83 8
2.2223737 -0.34404165 -0.51918703 9 1
4.196075 -0.65033668 0.22253251 89 9
2.6229324 -0.40698898 -0.51594758 9 2
4.1974306 -0.65204722 0.3716321 78 10
3.1952801 -0.49693993 -0.5121665 11 3
4.1858668 -0.65099907 0.52013838 101 11
4.0602198 -0.63218385 -0.50453913 12 4
4.1807685 -0.65170085 0.67016536 66 12
4.1694145 -0.65067637 -0.36919171 78 5
4.2014389 -0.6564253 0.82658464 33 13
4.1931896 -0.65588617 -0.22242783 97 6
4.1855526 -0.65544003 0.97808713 61 14
4.1843605 -0.65525335 -0.073928393 90 7
4.1835194 -0.65586966 1.1346627 11 15
1.9310176 -0.30549771 -0.52384979 12 0
4.1832108 -0.66255552 0.073928393 86 8
2.2287967 -0.35340551 -0.52098668 9 1
4.1936631 -0.66571164 0.22253251 92 9
2.6214957 -0.4161422 -0.51594758 9 2
4.1852903 -0.66513139 0.37076053 82 10
3.1857226 -0.50684893 -0.51091504 11 3
4.1952152 -0.66821021 0.52160084 111 11
4.0578756 -0.64706105 -0.50453913 12 4
4.1881051 -0.66857672 0.67172968 75 12
4.159132 -0.66469604 -0.36849448 79 5
4.1971831 -0.67077726 0.82620305 31 13
4.194819 -0.67115021 -0.22263718 97 6
4.1909366 -0.67127919 0.97988683 65 14
4.1858802 -0.67121869 -0.073998205 91 7
4.1658273 -0.66874897 1.1305215 11 15
1.9279779 -0.31226429 -0.52333212 12 0
4.1788988 -0.67683393 0.073893487 90 8
2.2198551 -0.35993567 -0.51918703 9 1
4.1991997 -0.68162632 0.2229512 92 9
2.6199529 -0.42574766 -0.51594758 9 2
4.1867576 -0.68110669 0.37110916 82 10
3.1838434 -0.51852185 -0.51091504 11 3
4.1830602 -0.68125463 0.52038211 108 11
4.0555921 -0.66122174 -0.50453913 12 4
4.1935439 -0.68446463 0.67298114 75 12
4.1646514 -0.68049514 -0.36919171 79 5
4.1811337 -0.68393767 0.82353163 35 13
4.1883888 -0.685875 -0.22242783 97 6
4.188448 -0.68663526 0.97988683 69 14
4.1914048 -0.68712002 -0.074137822 94 7
4.1749063 -0.68516356 1.1336274 13 15
1.9269874 -0.31831968 -0.52333212 13 0
4.1884685 -0.69264543 0.074102923 90 8
2.2071135 -0.36538529 -0.5164876 9 1
4.1870642 -0.69391477 0.22242783 94 9
2.6224763 -0.43461835 -0.51671082 9 2
4.1904936 -0.69523466 0.3716321 82 10
3.1841474 -0.52884519 -0.51122791 11 3
4.1768618 -0.69447124 0.51989466 106 11
4.0494609 -0.67401505 -0.50405163 12 4
4.1931996 -0.6986919 0.67329407 77 12
4.1703548 -0.69488537 -0.36988899 78 5
4.1770282 -0.69674665 0.82315004 38 13
4.1822734 -0.69837183 -0.2222185 100 6
4.1881919 -0.70011151 0.98033673 74 14
4.1891031 -0.70101541 -0.074137822 91 7
4.1897588 -0.70187694 1.1382862 13 15
1.9411037 -0.32761621 -0.52747321 12 0
4.1840539 -0.70692867 0.074068017 86 8
2.2058249 -0.37308729 -0.5164876 9 1
4.1747708 -0.70685911 0.22190447 92 9
2.6073933 -0.44147566 -0.51403946 10 2
4.1958985 -0.71118975 0.37232932 84 10
3.1744919 -0.53863496 -0.50997645 11 3
4.180284 -0.71004426 0.52062589 111 11
4.0490403 -0.68847895 -0.50429535 13 4
4.1907349 -0.71332467 0.67329407 82 12
4.1698675 -0.70977271 -0.37006328 82 5
4.184248 -0.71297193 0.82505816 43 13
4.1837478 -0.71363807 -0.22242783 100 6
4.1857224 -0.71472675 0.98033673 78 14
4.1826892 -0.71496016 -0.074068017 94 7
4.1796665 -0.71519434 1.1362157 13 15
1.9399483 -0.3343899 -0.52747321 13 0
4.1874719 -0.72254938 0.074172728 90 8
2.2160308 -0.38277501 -0.51918703 9 1
4.1881485 -0.72341883 0.22274184 97 9
2.6077709 -0.45090893 -0.51442105 9 2
4.1914272 -0.72549194 0.37215498 86 10
3.1901095 -0.55274791 -0.51279223 11 3
4.1856036 -0.72598886 0.52160084 111 11
4.0407448 -0.7015897 -0.50356412 12 4
4.1766691 -0.7251901 0.67141682 82 12
4.1752162 -0.72568858 -0.37076053 85 5
4.1914039 -0.72925586 0.82696623 48 13
4.193037 -0.73029393 -0.22305585 94 6
4.1832018 -0.72933328 0.98033673 79 14
4.1724148 -0.72745252 -0.073928393 94 7
4.1772718 -0.72905064 1.1362157 13 15
1.9178405 -0.33747679 -0.52177918 13 0
4.1850529 -0.73643154 0.074172728 90 8
2.2185879 -0.39079759 -0.52008682 9 1
4.1875648 -0.73838067 0.22284654 100 9
2.6023142 -0.45932651 -0.51365787 9 2
4.1790595 -0.73838508 0.37128347 82 10
3.1765876 -0.56126148 -0.51091504 11 3
4.1870823 -0.7405563 0.52208835 115 11
4.0462151 -0.71636987 -0.50453913 12 4
4.1818929 -0.74114394 0.67266828 81 12
4.1550021 -0.73712617 -0.36919171 78 5
4.1889629 -0.74315101 0.82696623 50 13
4.1945257 -0.74489301 -0.22326522 96 6
4.1826792 -0.74354237 0.98078656 82 14
4.1816626 -0.74411464 -0.074137822 91 7
4.1670942 -0.7422725 1.1341451 13 15
1.9167109 -0.34383473 -0.52177918 13 0
4.1785207 -0.75032878 0.074102923 90 8
2.2057023 -0.39647102 -0.51738745 10 1
4.1888928 -0.75370073 0.22305585 94 9
2.6046412 -0.46864888 -0.51442105 9 2
4.1785488 -0.7525925 0.37145776 82 10
3.1765532 -0.57269686 -0.51122791 11 3
4.1766572 -0.75375712 0.52111334 115 11
4.0475969 -0.73119521 -0.50502658 13 4
4.1870551 -0.7571429 0.67391974 82 12
4.156456 -0.75160968 -0.36954033 79 5
4.1766844 -0.75602043 0.82505816 56 13
4.1918998 -0.75953019 -0.22326522 94 6
4.1915631 -0.76022476 0.983486 82 14
4.1829748 -0.75942129 -0.074207634 94 7
4.1625772 -0.75646847 1.1336274 14 15
1.9345019 -0.3540006 -0.5269556 13 0
4.1758761 -0.76490998 0.074102923 88 8
2.2043047 -0.40416792 -0.51738745 10 1
4.1823082 -0.76759714 0.22284654 94 9
2.6068513 -0.47844672 -0.51518428 9 2
4.1856942 -0.76897383 0.37232932 82 10
3.1745348 -0.58378172 -0.51122791 10 3
4.1661916 -0.76689428 0.52013838 115 11
4.0333061 -0.7431612 -0.50356412 16 4
4.1902146 -0.7728287 0.67485833 88 12
4.1655631 -0.76828206 -0.37058622 79 5
4.166297 -0.76916933 0.82353163 57 13
4.1774387 -0.77198023 -0.22263718 97 6
4.1812191 -0.77343357 0.98168641 84 14
4.1842308 -0.774746 -0.074277438 90 7
4.1732073 -0.77345824 1.1372509 17 15
1.9332544 -0.36075109 -0.5269556 13 0
4.1810431 -0.78095043 0.07424254 88 8
2.2047961 -0.41221806 -0.51783729 9 1
4.1737137 -0.78108919 0.22253251 100 9
2.5916572 -0.48501539 -0.51251298 9 2
4.1927762 -0.7854141 0.37320086 87 10
3.1647115 -0.5934031 -0.50997645 10 3
4.169342 -0.78253096 0.52086961 118 11
4.0306873 -0.75723547 -0.50356412 16 4
4.1797261 -0.78599036 0.67360687 90 12
4.1705513 -0.78501862 -0.37128347 85 5
4.1809511 -0.78697616 0.82696623 61 13
4.1747184 -0.78655756 -0.22263718 94 6
4.1689181 -0.78621817 0.97943687 87 14
4.1736412 -0.78786319 -0.074137822 91 7
4.1723804 -0.78837949 1.1377686 19 15
1.918635 -0.3653051 -0.52333212 12 0
4.1822209 -0.79628831 0.074312352 88 8
2.2090867 -0.42100623 -0.51918703 10 1
4.1729231 -0.79602766 0.22263718 99 9
2.5975759 -0.49598396 -0.51403946 9 2
4.1781273 -0.79853201 0.37215498 86 10
3.1819172 -0.60870999 -0.51310509 10 3
4.1860828 -0.80080986 0.52330703 123 11
4.0358186 -0.77279401 -0.50453913 12 4
4.1769576 -0.80057555 0.67360687 86 12
4.171699 -0.80032265 -0.3716321 84 5
4.1838226 -0.80340564 0.82811105 63 13
4.1796532 -0.8033613 -0.22305585 100 6
4.1813183 -0.80443811 0.98303616 100 14
4.1708655 -0.80242711 -0.074137822 90 7
4.1639118 -0.80184299 1.1362157 21 15
1.9154515 -0.37163222 -0.52281445 13 0
4.1753478 -0.81084913 0.07424254 93 8
2.2094417 -0.42947197 -0.51963693 9 1
4.1954641 -0.81627566 0.22399792 100 9
2.599683 -0.5057981 -0.51480269 9 2
4.1714034 -0.81234986 0.37180638 86 10
3.1642618 -0.61678982 -0.51060218 11 3
4.1870165 -0.81690753 0.52379447 120 11
4.032959 -0.78758091 -0.50453913 12 4
4.173995 -0.81587952 0.67360687 86 12
4.1493263 -0.81105757 -0.36988899 78 5
4.1790662 -0.81762803 0.82772946 65 13
4.1885834 -0.8202492 -0.22368389 100 6
4.180397 -0.81940365 0.983486 99 14
4.1678963 -0.81770867 -0.074137822 97 7
4.1533628 -0.81561017 1.1341451 27 15
1.9179331 -0.37906528 -0.52384979 12 0
4.172492 -0.82541883 0.07424254 90 8
2.2002826 -0.43566766 -0.51783729 9 1
4.1827931 -0.82897401 0.22347455 100 9
2.5979016 -0.51486957 -0.51480269 9 2
4.1783137 -0.82884413 0.37267792 84 10
3.1620896 -0.6278314 -0.51060218 11 3
4.1763515 -0.82997024 0.52281958 118 11
4.0340791 -0.80242825 -0.50502658 12 4
4.1711216 -0.8304444 0.67360687 88 12
4.15624 -0.82748151 -0.37076053 82 5
4.1665592 -0.83029211 0.82582134 63 13
4.1837368 -0.83447438 -0.22357923 100 6
4.1927996 -0.83704305 0.98708516 94 14
4.1728606 -0.83381981 -0.074277438 91 7
4.1561732 -0.83123964 1.135698 30 15
1.9203861 -0.38652021 -0.52488506 12 0
4.1735063 -0.8407684 0.074312352 93 8
2.1949277 -0.44257504 -0.51693749 9 1
4.1780634 -0.84244537 0.22336988 100 9
2.6057107 -0.5258767 -0.51671082 9 2
4.1832075 -0.84500223 0.37337521 89 10
3.159879 -0.63886523 -0.51060218 10 3
4.173429 -0.8445434 0.52281958 123 11
4.0195799 -0.8141405 -0.50356412 12 4
4.187705 -0.84819323 0.67673558 86 12
4.1611366 -0.84356803 -0.37145776 82 5
4.1674843 -0.84561193 0.82658464 70 13
4.1749263 -0.84788072 -0.22326522 100 6
4.1803036 -0.84973258 0.98483574 100 14
4.18575 -0.85083961 -0.074556686 94 7
4.162859 -0.8469432 1.1382862 37 15
1.9303803 -0.39554802 -0.52799088 12 0
4.1785312 -0.85620934 0.074451968 93 8
2.1800849 -0.44711071 -0.51378822 9 1
4.171185 -0.85622132 0.22316055 100 9
2.5961668 -0.53338873 -0.51518428 9 2
4.1782804 -0.85919785 0.37320086 91 10
3.1654823 -0.65093184 -0.51185364 10 3
4.1783824 -0.85997903 0.52379447 123 11
4.0051928 -0.82506233 -0.50210178 13 4
4.1692414 -0.85961467 0.67423266 90 12
4.1698742 -0.86050385 -0.37250364 91 5
4.1685028 -0.86022085 0.82734787 70 13
4.1779594 -0.86293268 -0.22357923 100 6
4.1774631 -0.8635903 0.98483574 100 14
4.1670885 -0.86220402 -0.074277438 90 7
4.1693358 -0.86342794 1.1408744 47 15
1.9177105 -0.39958277 -0.52488506 12 0
4.1853042 -0.87283099 0.07462649 94 8
2.2014024 -0.45949599 -0.51918703 9 1
4.1681709 -0.8707763 0.22316055 100 9
2.5751662 -0.53798026 -0.5113681 9 2
4.1773591 -0.87345666 0.37337521 89 10
3.155457 -0.66035891 -0.51060218 10 3
4.1753554 -0.87455904 0.52379447 120 11
4.012002 -0.84107447 -0.5033204 13 4
4.1662154 -0.87416279 0.67423266 90 12
4.1650476 -0.87391776 -0.37232932 82 5
4.1731601 -0.87638032 0.82887435 72 13
4.1807852 -0.87874359 -0.22389325 100 6
4.1744227 -0.87816715 0.98483574 100 14
4.1640534 -0.87674463 -0.074277438 94 7
4.1606264 -0.8767814 1.1393216 50 15
1.9087446 -0.4046717 -0.52281445 12 0
4.1685395 -0.88452965 0.074382156 93 8
2.2016914 -0.46758237 -0.51963693 9 1
4.1729202 -0.88698161 0.22357923 94 9
2.5924761 -0.5510478 -0.51518428 9 2
4.1625915 -0.88554537 0.37232932 87 10
3.1454043 -0.66972393 -0.50935066 10 3
4.1781015 -0.89036959 0.5245257 125 11
4.0129251 -0.85590214 -0.5038079 15 4
4.1747298 -0.89117467 0.67610979 88 12
4.1483326 -0.88553971 -0.37110916 82 5
4.1623955 -0.88930124 0.82734787 71 13
4.1776924 -0.89333194 -0.22389325 97 6
4.1770492 -0.89395678 0.98618543 99 14
4.1648779 -0.8921122 -0.07434725 91 7
4.1537619 -0.89048934 1.1382862 60 15
1.9073204 -0.41133201 -0.52281445 12 0
4.1693358 -0.89991903 0.074451968 100 8
2.1943314 -0.47403041 -0.51828724 9 1
4.1873679 -0.90534103 0.22452128 100 9
2.586699 -0.55926406 -0.51442105 9 2
4.1692119 -0.90217716 0.37320086 86 10
3.1488392 -0.68195367 -0.51028925 11 3
4.1672077 -0.90326631 0.52355075 126 11
4.0137925 -0.8707462 -0.50429535 13 4
4.1715937 -0.90574175 0.67610979 90 12
4.1471634 -0.90043736 -0.37128347 79 5
4.1515918 -0.9021576 0.82582134 71 13
4.1745486 -0.90790933 -0.22389325 97 6
4.175807 -0.90894634 0.98663533 100 14
4.1734624 -0.90919894 -0.074556686 91 7
4.1525154 -0.90539479 1.1388038 71 15
1.9058728 -0.41798732 -0.52281445 12 0
4.1700749 -0.91532469 0.074521773 93 8
2.1850498 -0.48001456 -0.5164876 9 1
4.1744289 -0.91780764 0.22399792 100 9
2.5924008 -0.56997621 -0.51594758 9 2
4.1757665 -0.9188658 0.37407246 89 10
3.1387229 -0.69124168 -0.50903779 11 3
4.1485214 -0.9143889 0.52160084 120 11
3.9952209 -0.88133073 -0.5023455 13 4
4.1761227 -0.9220013 0.67736137 88 12
4.1537223 -0.91705579 -0.37215498 82 5
4.1599193 -0.91918552 0.82811105 72 13
4.1733046 -0.92290699 -0.22399792 100 6
4.1688037 -0.92267489 0.9857356 100 14
4.1741672 -0.92462629 -0.07462649 97 7
4.1606464 -0.92239314 1.1419097 71 15
1.9138302 -0.42673969 -0.52540272 11 0
4.1746621 -0.93161756 0.074661396 100 8
2.1947725 -0.49018756 -0.51918703 9 1
4.1653519 -0.93106639 0.22368389 100 9
2.5769835 -0.576024 -0.51327622 9 2
4.1744776 -0.93387127 0.37424675 92 10
3.1497848 -0.7052148 -0.51122791 10 3
4.1646748 -0.93320489 0.5240382 125 11
3.9901834 -0.89483696 -0.50210178 12 4
4.1632414 -0.93441004 0.67579699 92 12
4.1660485 -0.93504012 -0.37354952 87 5
4.1624322 -0.9349916 0.82925594 77 13
4.1739545 -0.93834513 -0.22420727 99 6
4.1655574 -0.93722111 0.9857356 100 14
4.1670132 -0.93831277 -0.074556686 91 7
4.1649394 -0.9386096 1.1439801 76 15
1.9010245 -0.43085551 -0.52229685 12 0
4.1811352 -0.94839585 0.074835919 94 8
2.1854465 -0.49612015 -0.51738745 9 1
4.1640239 -0.94604295 0.22378856 100 9
2.5672994 -0.58327609 -0.51174974 9 2
4.1770205 -0.94976246 0.37476969 95 10
3.1473041 -0.7162053 -0.51122791 10 3
4.1652627 -0.94861823 0.5245257 126 11
3.990906 -0.9096421 -0.50258923 12 4
4.1561022 -0.94805813 0.6751712 92 12
4.1530461 -0.94736099 -0.37267792 82 5
4.1648855 -0.95082641 0.83040082 76 13
4.1745477 -0.95379889 -0.2244166 100 6
4.1622605 -0.951756 0.9857356 100 14
4.1559153 -0.95106822 -0.074417062 94 7
4.1541057 -0.95141715 1.1419097 78 15
1.8938612 -0.43618792 -0.52074397 11 0
4.1661072 -0.96028996 0.07462649 97 8
2.1950946 -0.50637394 -0.52008682 9 1
4.1762652 -0.9641667 0.22462595 100 9
2.5767252 -0.59488392 -0.51403946 9 2
4.1562085 -0.96030045 0.37320086 91 10
3.1447847 -0.72718704 -0.51122791 10 3
4.1638598 -0.9635995 0.52476943 125 11
3.9993103 -0.92625487 -0.50405163 12 4
4.1604652 -0.96434408 0.67642272 92 12
4.1419506 -0.96005255 -0.3719807 88 5
4.1634536 -0.96580237 0.83078241 77 13
4.1770296 -0.96972001 -0.22473061 97 6
4.1665058 -0.96804321 0.98753518 100 14
4.1642561 -0.96828657 -0.07462649 91 7
4.1488776 -0.96547407 1.1413921 82 15
1.9036133 -0.44543704 -0.52384979 11 0
4.1607833 -0.97437066 0.074591585 100 8
2.1819296 -0.51136518 -0.51738745 9 1
4.1806521 -0.98056304 0.22504464 100 9
2.5688989 -0.60252976 -0.51289463 9 2
4.179987 -0.98117673 0.37564126 99 10
3.1306887 -0.73544943 -0.50935066 10 3
4.1546736 -0.97676528 0.5240382 128 11
3.9941204 -0.93975478 -0.5038079 11 4
4.1666875 -0.9811247 0.67798704 90 12
4.1560287 -0.97861487 -0.37354952 90 5
4.1524134 -0.97852838 0.82925594 77 13
4.1677876 -0.98291922 -0.2244166 100 6
4.1706877 -0.98437166 0.98933476 100 14
4.1608505 -0.98281664 -0.07462649 97 7
4.1492419 -0.98083925 1.1424273 94 15
1.9001673 -0.45163247 -0.52333212 11 0
4.1690288 -0.99166507 0.074801013 100 8
2.1763396 -0.51807582 -0.5164876 9 1
4.1674895 -0.99283606 0.22452128 100 9
2.5763292 -0.61376816 -0.51480269 9 2
4.1668458 -0.9934513 0.37476969 100 10
3.1281025 -0.74637312 -0.50935066 10 3
4.1551008 -0.99218392 0.5245257 129 11
3.983093 -0.95184559 -0.50283301 9 4
4.1593952 -0.9947443 0.67736137 100 12
4.1545248 -0.99357951 -0.3737238 100 5
4.1585188 -0.99530208 0.83116406 96 13
4.1565619 -0.99560064 -0.22399792 100 6
4.1577506 -0.99665278 0.98708516 100 14
4.1651731 -0.99920082 -0.074766114 99 7
4.153307 -0.99712086 1.1444979 100 15
1.9060911 -0.46007565 -0.52540272 11 0
4.1713734 -1.0076202 0.074905731 100 8
2.1820948 -0.52750117 -0.51828724 9 1
4.1562333 -1.0054985 0.22410259 100 9
2.5703547 -0.62183416 -0.51403946 9 2
4.178844 -1.0117408 0.37616417 100 10
3.1369975 -0.76007873 -0.51122791 10 3
4.1593285 -1.008553 0.52550066 135 11
3.9681711 -0.96293449 -0.50137055 9 4
4.1578169 -1.0097233 0.67767417 100 12
4.1510315 -1.0080755 -0.3737238 100 5
4.158834 -1.0107391 0.83192724 100 13
4.166646 -1.0134078 -0.22473061 100 6
4.1485662 -1.0097774 0.9857356 100 14
4.150003 -1.0108942 -0.074556686 100 7
4.1554317 -1.012985 1.1460507 79 15
1.8988445 -0.46534684 -0.52384979 11 0
4.1639466 -1.0212224 0.074835919 100 8
2.1802402 -0.53511488 -0.51828724 9 1
4.1449399 -1.0180948 0.22368389 100 9
2.5529158 -0.62705618 -0.51098651 9 2
4.1482 -1.0196633 0.3737238 71 10
3.1304886 -0.77008051 -0.51060218 10 3
4.1442175 -1.0202186 0.5240382 42 11
3.9898429 -0.98295337 -0.50453913 12 4
4.1408415 -1.0209206 0.67548412 37 12
4.1204047 -1.0158819 -0.37128347 31 5
4.153388 -1.025552 -0.22420727 46 6
4.1166387 -1.0172403 0.97898698 29 14
4.1464486 -1.0253743 -0.074556686 73 7
4.1031132 -1.0154178 1.1325922 19 15
1.8859602 -0.46917391 -0.52074397 12 0
2.1859226 -0.54460651 -0.52008682 9 1
4.1006641 -1.0224105 0.22148579 21 9
2.5697606 -0.64071333 -0.51480269 9 2
4.0866218 -1.0196669 0.36849448 19 10
3.1277814 -0.7810033 -0.51060218 10 3
4.0732255 -1.0178348 0.51550734 28 11
3.9690547 -0.99254024 -0.5023455 20 4
4.0567689 -1.0152272 0.66234362 23 12
4.0395226 -1.0109111 -0.36431101 13 5
4.0526462 -1.0149469 0.81208313 15 13
4.0916624 -1.0254773 -0.22106709 19 6
4.0450158 -1.0145369 0.96279049 24 14
4.0768995 -1.0232899 -0.073369913 21 7
4.0171032 -1.0090265 1.1098161 17 15
1.8992957 -0.47953767 -0.52488506 11 0
4.0190635 -1.0154867 0.072357684 16 8
2.1764512 -0.55032271 -0.51828724 9 1
4.0333524 -1.0198461 0.21803163 17 9
2.5637019 -0.64871633 -0.51403946 9 2
3.998055 -1.012406 0.36082479 17 10
3.125036 -0.79191649 -0.51060218 10 3
4.0003772 -1.01448 0.50673276 27 11
3.9617181 -1.0054121 -0.501858 16 4
4.0055127 -1.0165265 0.65452182 17 12
3.9683805 -1.0078403 -0.35821009 13 5
3.9634542 -1.0073255 0.79491037 15 13
3.9990187 -1.0171074 -0.21625218 18 6
3.9696856 -1.0103846 0.94569421 19 14
4.0017815 -1.0185537 -0.072078437 15 7
3.9463403 -1.0051761 1.0911812 14 15
1.8901243 -0.48424664 -0.52281445 11 0
3.9343143 -1.0079646 0.070891678 16 8
2.1651759 -0.55511719 -0.5160377 10 1
3.9349728 -1.0095972 0.21290269 16 9
2.5652251 -0.65863782 -0.51480269 9 2
3.9288859 -1.0094974 0.35489815 14 10
3.1185665 -0.801292 -0.50997645 10 3
3.9123986 -1.0059891 0.49600828 26 11
3.9276025 -1.0106292 -0.49795815 1 4
3.9349861 -1.0132616 0.6435715 19 12
3.912746 -1.0082628 -0.3535037 15 5
3.9011564 -1.0052762 0.78308016 13 13
3.9143968 -1.0094169 -0.21185598 18 6
3.8908362 -1.0040655 0.92769814 19 14
3.9188185 -1.0120161 -0.070647344 18 7
3.8792138 -1.0025107 1.0735815 17 15
1.899727 -0.49342585 -0.52592033 12 0
3.8649685 -1.0045881 0.069704913 16 8
2.1726551 -0.56512445 -0.51828724 9 1
3.8521776 -1.0026991 0.20861115 16 9
2.559227 -0.66615164 -0.51403946 9 2
3.8464673 -1.0019296 0.34775141 15 10
3.1272192 -0.81516248 -0.51185364 10 3
3.8339512 -1.0000987 0.48650244 25 11
3.9278927 -1.0253359 -0.49844566 1 4
3.8454192 -1.004524 0.62949234 17 12
3.836128 -1.0020969 -0.34687987 13 5
3.8178475 -0.99803334 0.76705217 16 13
3.8335595 -1.0028555 -0.20766909 16 6
3.8062434 -0.99641937 0.90835232 19 14
3.8262787 -1.0023779 -0.069041722 16 7
3.7915993 -0.99400014 1.0502877 19 15
1.8905208 -0.49808544 -0.52384979 11 0
3.793762 -1.0002302 0.068483248 24 8
2.178206 -0.57469356 -0.52008682 8 1
3.779135 -0.99778491 0.20484295 27 9
2.5530894 -0.67407864 -0.51327622 9 2
3.7678211 -0.99550122 0.34095326 40 10
3.1205356 -0.82506371 -0.51122791 10 3
3.7594321 -0.99468881 0.47748414 46 11
3.7540529 -0.99466777 0.61510038 42 12
3.7574954 -0.9955799 -0.34008169 16 5
3.7687964 -0.99927819 0.75789338 50 13
3.7489564 -0.99471813 -0.20327288 24 6
3.7338552 -0.99210662 -0.067436099 37 7
3.7470329 -0.99630809 1.0388998 87 15
1.8719732 -0.50019318 -0.51919103 10 0
3.7303605 -0.99745387 0.067401193 52 8
2.1761868 -0.58229339 -0.52008682 9 1
3.7449353 -1.0020515 0.2031682 57 9
2.5507209 -0.68298644 -0.51327622 9 2
3.7527759 -1.0055532 0.33990738 87 10
3.1061883 -0.83288181 -0.50935066 10 3
3.7540197 -1.0072911 0.47724038 87 11
3.7826014 -1.015668 -0.48089647 1 4
3.7431028 -1.0050622 0.61384892 82 12
3.7155147 -0.99834979 -0.33659548 70 5
3.770973 -1.0139569 0.75903821 77 13
3.7577965 -1.0118208 0.89845449 99 14
3.7266827 -1.0034431 -0.067366287 71 7
3.7343814 -1.0062152 1.0363115 86 15
1.8683513 -0.50621945 -0.51867342 9 0
3.7444031 -1.0145253 0.067715339 83 8
2.172363 -0.58899683 -0.51963693 9 1
3.7606905 -1.0203474 0.20421492 85 9
2.5521109 -0.69291484 -0.51403946 9 2
3.7530885 -1.0196916 0.34025604 88 10
3.1072221 -0.8442136 -0.50997645 10 3
3.7449119 -1.0181719 0.47650915 108 11
3.7600582 -1.0229946 -0.47845906 1 4
3.7624435 -1.024349 0.61760336 94 12
3.7273855 -1.015503 -0.33798996 79 5
3.742965 -1.0197476 0.7540772 76 13
3.7459526 -1.0212638 -0.20348223 93 6
3.7638209 -1.026841 0.90070403 95 14
3.7424486 -1.0217121 -0.067715339 86 7
3.7327101 -1.0197535 1.0368291 95 15
1.8815656 -0.51650339 -0.52281445 9 0
3.7466238 -1.0291786 0.06782005 100 8
2.1590195 -0.59347701 -0.51693749 9 1
3.7513285 -1.0318794 0.2039009 100 9
2.5573704 -0.70345688 -0.51556593 9 2
3.7496865 -1.0321316 0.34025604 87 10
3.0966384 -0.85295635 -0.50872493 10 3
3.7432487 -1.0317653 0.47675291 111 11
3.7756004 -1.0413917 -0.48089647 1 4
3.7607493 -1.0380018 0.61791623 86 12
3.7182357 -1.0262676 -0.33746704 72 5
3.7412753 -1.0333295 0.75445884 76 13
3.728889 -1.030609 -0.20274951 92 6
3.7508223 -1.0373757 0.89845449 96 14
3.7465684 -1.036903 -0.067854956 86 7
3.7440221 -1.0369018 1.0409703 97 15
1.8834738 -0.52410394 -0.52384979 9 0
3.7487876 -1.0438597 0.067924768 97 8
2.1625667 -0.60257906 -0.51828724 9 1
3.7419319 -1.0433583 0.20358689 93 9
2.5435526 -0.7092157 -0.51327622 9 2
3.7575755 -1.048427 0.34130189 82 10
3.0936422 -0.86376047 -0.50872493 10 3
3.7453604 -1.046428 0.47748414 108 11
3.7451777 -1.0470818 -0.47748414 1 4
3.753298 -1.0500584 0.61729044 88 12
3.7223055 -1.0413876 -0.33816427 72 5
3.7546604 -1.0511461 0.75789338 78 13
3.7406545 -1.0479292 -0.20358689 92 6
3.7490549 -1.0509883 0.89890444 91 14
3.7390752 -1.0488945 -0.067785151 86 7
3.7422397 -1.0504867 1.0414879 99 15
1.8704767 -0.527529 -0.52074397 9 0
3.7585926 -1.0607409 0.068169102 100 8
2.16045 -0.61012411 -0.51828724 9 1
3.7499843 -1.0590183 0.20421492 100 9
2.5335047 -0.71595448 -0.51174974 9 2
3.7423894 -1.058284 0.34025604 88 10
3.1020126 -0.87778115 -0.51060218 10 3
3.7435946 -1.0600362 0.47772786 115 11
3.7682383 -1.0677248 -0.48089647 1 4
3.7459946 -1.061422 0.61666471 88 12
3.7186477 -1.0543745 -0.33816427 71 5
3.7641895 -1.0679971 0.76056474 81 13
3.736974 -1.06098 -0.20358689 92 6
3.7509873 -1.0656661 0.90025413 100 14
3.7317293 -1.0601948 -0.067715339 86 7
3.7368774 -1.0623624 1.0409703 95 15
1.8649091 -0.53299326 -0.51970869 9 0
3.7492864 -1.0715506 0.068064384 97 8
2.1621621 -0.61835676 -0.51918703 8 1
3.7597058 -1.0759481 0.20494762 100 9
2.5328774 -0.72533417 -0.51213133 9 2
3.7329266 -1.0696945 0.33973309 94 10
3.0876913 -0.88479811 -0.50872493 10 3
3.759141 -1.0779163 0.48016527 111 11
3.7646768 -1.0802149 -0.48089647 1 4
3.7460637 -1.0755818 0.61729044 86 12
3.7034554 -1.0640475 -0.33711842 67 5
3.7511923 -1.0777628 0.75865656 77 13
3.744952 -1.0766777 -0.20421492 88 6
3.7493055 -1.0786377 0.90070403 100 14
3.7356925 -1.0754275 -0.067854956 83 7
3.7294333 -1.0743304 1.039935 97 15
1.8649869 -0.53971153 -0.5202263 10 0
3.7397609 -1.0829629 0.067959674 100 8
2.1468883 -0.62210375 -0.5160377 7 1
3.7578454 -1.0896217 0.2050523 100 9
2.5435286 -0.73800069 -0.51480269 9 2
3.7350993 -1.083733 0.34025604 88 10
3.0864809 -0.89612144 -0.50903779 9 3
3.7553554 -1.0910314 0.48016527 111 11
3.7570708 -1.092241 -0.480409 1 4
3.7460802 -1.0897549 0.61791623 90 12
3.7111962 -1.0803096 -0.33816427 71 5
3.7415624 -1.0898575 0.75751179 82 13
3.7371459 -1.0892787 -0.20400558 88 6
3.7530007 -1.0939 0.90250361 100 14
3.7434337 -1.0918204 -0.068064384 83 7
