# .PCD v0.7 - Point Cloud Data file format
VERSION 0.7
FIELDS x y z intensity ring
SIZE 4 4 4 4 2
TYPE F F F F U
COUNT 1 1 1 1 1
WIDTH 1250
HEIGHT 1
VIEWPOINT 0 0 0 1 0 0 0
POINTS 1250
DATA ascii
-3.8153868 -2.8273623 0.75213701 9 12
-3.7877305 -2.8058441 0.91626483 2 13
-3.208586 -2.375963 -0.20923917 1 6
-3.8014238 -2.8139334 1.0919124 3 14
-3.8257759 -2.8309259 -0.083073452 1 7
-3.7989624 -2.8100591 1.2661428 8 15
-1.6023335 -1.1787543 0.31505907 1 12
-1.5927049 -1.1712426 0.38428935 2 13
-1.6064615 -1.1804947 0.46024984 1 14
-1.5727046 -1.154844 0.52281445 1 15
-1.5892665 -1.1635938 0.034381241 2 8
-1.5490501 -1.1333179 0.10058971 0 9
-1.5850791 -1.158404 0.24105757 0 11
-1.5713425 -1.1475239 0.30817595 1 12
-1.6186646 -1.1820824 -0.17535736 1 5
-1.5809268 -1.1541001 0.38047317 5 13
-1.5681801 -1.144376 -0.10174111 7 6
-1.5727876 -1.1473171 0.44945222 2 14
-1.5591829 -1.1369759 -0.033683144 7 7
-1.5579932 -1.1356913 0.51660281 0 15
-1.5593493 -1.1333499 0.033648241 5 8
-1.5756207 -1.1443357 0.10205512 0 9
-1.5623049 -1.1342478 0.16890782 0 10
-1.5698313 -1.1388761 0.23813272 1 11
-1.5625439 -1.1327565 0.30567297 3 12
-1.574388 -1.1413428 -0.17012802 0 5
-1.5754071 -1.1416627 0.37818345 7 13
-1.5624607 -1.1318643 -0.10111307 11 6
-1.5657343 -1.1338192 0.44630289 5 14
-1.5420842 -1.1162834 -0.033229381 11 7
-1.5556874 -1.1257162 0.51453227 1 15
-1.5470796 -1.1161993 0.033299193 7 8
-1.5569241 -1.1224763 0.10058971 1 9
-1.5436257 -1.1124789 0.16646746 0 10
-1.5673537 -1.1287491 0.23715776 3 11
-1.5664883 -1.1272956 0.30567297 5 12
-1.5460187 -1.112565 -0.16664177 0 5
-1.5650394 -1.1258379 0.37474889 8 13
-1.5518084 -1.115909 -0.10017103 11 6
-1.5665177 -1.1260724 0.4454031 8 14
-1.539476 -1.1062257 -0.033089764 15 7
-1.5721598 -1.1292955 0.51867342 6 15
-1.5477146 -1.1084636 0.033229381 9 8
-1.5622618 -1.1184698 0.1006944 4 9
-1.5491196 -1.1082433 0.16664177 1 10
-1.5535209 -1.110572 0.23447664 5 11
-1.5782537 -1.1278372 0.30723733 7 12
-1.5758326 -1.1256915 -0.16943076 0 5
-1.5641667 -1.1169453 0.37360403 11 13
-1.5475662 -1.1046834 -0.099647671 11 6
-1.5640937 -1.1160696 0.44360349 11 14
-1.5366246 -1.0964688 -0.032950144 20 7
-1.5696049 -1.1195883 0.51660281 6 15
-1.5546411 -1.105643 0.033299193 12 8
-1.533596 -1.0898702 0.098600946 6 9
-1.5432321 -1.0959077 0.1655959 3 10
-1.5571949 -1.1054144 0.23447664 6 11
-1.5596246 -1.1063206 0.30285716 9 12
-1.6025064 -1.136318 -0.17187113 0 5
-1.5614561 -1.1072097 0.37207755 19 13
-1.5495915 -1.0983903 -0.099542998 12 6
-1.5487056 -1.0973568 0.43820465 16 14
-1.5306518 -1.0841628 -0.032740716 22 7
-1.5656203 -1.1085209 0.51401466 7 15
-1.5552238 -1.097903 0.033229381 18 8
-1.5455514 -1.0902667 0.099124312 6 9
-1.5533708 -1.0953768 0.16629316 6 10
-1.5707806 -1.1068323 0.23593907 7 11
-1.5537859 -1.0940462 0.30097994 10 12
-1.573684 -1.1080568 -0.16838489 0 5
-1.5685225 -1.1040125 0.37284079 25 13
-1.5501491 -1.0906764 -0.099333659 11 6
-1.5461508 -1.0874598 0.43640503 19 14
-1.5344269 -1.0788133 -0.032740716 30 7
-1.5536745 -1.0919411 0.50883824 9 15
-1.5377574 -1.0775495 0.032775622 22 8
-1.5493478 -1.084865 0.099124312 8 9
-1.5327009 -1.0728103 0.16367848 7 10
-1.571381 -1.0990671 0.23545158 7 11
-1.5527383 -1.0852206 0.30004135 10 12
-1.5938733 -1.11397 -0.17012802 0 5
-1.5530539 -1.0850382 0.36826137 28 13
-1.5506719 -1.0829715 -0.099124312 11 6
-1.545144 -1.0787091 0.43505535 26 14
-1.5365433 -1.0723065 -0.03270581 33 7
-1.5352949 -1.0710369 0.50159132 12 15
-1.5464339 -1.0756009 0.032880332 30 8
-1.5465651 -1.0748907 0.09870562 12 9
-1.5495261 -1.0765483 0.16507298 10 10
-1.560532 -1.0833868 0.23325793 7 11
-1.5451553 -1.0719125 0.29785126 14 12
-1.6042999 -1.1129426 -0.17082524 0 5
-1.5487653 -1.0740166 0.36635327 30 13
-1.5528016 -1.0764138 -0.099019639 9 6
-1.5521033 -1.0755292 0.43595514 32 14
-1.5484962 -1.0726297 -0.032880332 37 7
-1.5390245 -1.0656708 0.50159132 22 15
-1.5485336 -1.0690602 0.03284543 40 8
-1.5486635 -1.0683519 0.098600946 18 9
-1.5483541 -1.0677392 0.16455004 13 10
-1.5561311 -1.0723013 0.23203924 7 11
-1.5602765 -1.0743543 0.30004135 17 12
-1.6508408 -1.1367139 -0.17535736 1 5
-1.5492705 -1.0663775 0.36559007 34 13
-1.5549039 -1.0698552 -0.098914966 8 6
-1.5510312 -1.0667917 0.43460542 35 14
-1.5571746 -1.0706167 -0.03298505 34 7
-1.5443268 -1.0613866 0.50210893 28 15
-1.5539057 -1.0647781 0.032880332 41 8
-1.5456066 -1.0586957 0.098182261 21 9
-1.5586486 -1.0668293 0.16524729 17 10
-1.5500335 -1.0601389 0.23057681 8 11
-1.5540464 -1.062485 0.29816413 20 12
-1.6547986 -1.1309444 -0.17535736 1 5
-1.5497414 -1.058748 0.3648268 36 13
-1.548733 -1.0576627 -0.098286942 7 6
-1.5449047 -1.0550483 0.43190601 36 14
-1.5425491 -1.0530449 -0.032601096 29 7
-1.5382638 -1.049726 0.49900314 33 15
-1.5557748 -1.0584944 0.03284543 43 8
-1.5557151 -1.0580572 0.098600946 28 9
-1.557234 -1.058295 0.16472435 20 10
-1.5650363 -1.0627995 0.232283 8 11
-1.5428519 -1.0473405 0.29534832 24 12
-1.5499941 -1.0513991 0.36406359 41 13
-1.5555379 -1.0547628 -0.098496281 6 6
-1.5435561 -1.0466384 0.4305563 39 14
-1.5460327 -1.0479238 -0.032601096 25 7
-1.5305409 -1.037034 0.49537966 43 15
-1.5476768 -1.0454942 0.032601096 48 8
-1.5577434 -1.0515028 0.098496281 31 9
-1.5409158 -1.0397525 0.16263261 20 10
-1.5488009 -1.0442865 0.22935812 9 11
-1.5415838 -1.0386372 0.29440969 23 12
-1.543702 -1.0396732 0.36177388 41 13
-1.5474297 -1.0417907 -0.097763576 5 6
-1.5423502 -1.0379798 0.42920661 44 14
-1.5447035 -1.0391725 -0.032496382 18 7
-1.5309457 -1.0295286 0.49434438 44 15
-1.5446733 -1.0356307 0.032461476 44 8
-1.5564264 -1.0427239 0.098182261 32 9
-1.5445361 -1.034367 0.16263261 20 10
-1.5540867 -1.0399778 0.22960186 10 11
-1.550126 -1.0365441 0.29534832 26 12
-1.5407929 -1.0299143 0.3602474 44 13
-1.5510567 -1.0363828 -0.097763576 5 6
-1.5492047 -1.0347548 0.4301064 44 14
-1.5566372 -1.0393258 -0.032670904 12 7
-1.5313164 -1.0220335 0.49330914 46 15
-1.5499436 -1.0313405 0.032496382 45 8
-1.5467513 -1.0284382 0.09734489 29 9
-1.5497965 -1.0300723 0.16280691 21 10
-1.5378643 -1.0213674 0.226677 9 11
-1.5520887 -1.0300345 0.29503542 26 12
-1.5378349 -1.020188 0.35872093 45 13
-1.5296968 -1.0144054 -0.096193492 4 6
-1.5398132 -1.020727 0.4265072 44 14
-1.5652565 -1.0371995 -0.032775622 10 7
-1.5332638 -1.0156153 0.49279147 51 15
-1.5485282 -1.0226179 0.032391667 37 8
-1.5403297 -1.0164319 0.096716851 29 9
-1.5502349 -1.0221916 0.1624583 21 10
-1.5463922 -1.0192707 0.22740822 11 11
-1.5457766 -1.0180911 0.29315823 26 12
-1.5350037 -1.0102278 0.35719445 46 13
-1.5434163 -1.0153779 -0.096821532 5 6
-1.5354029 -1.0097226 0.42425767 49 14
-1.5588424 -1.0251371 -0.03256619 10 7
-1.538414 -1.0113182 0.49330914 53 15
-1.5556114 -1.0191272 0.032461476 34 8
-1.5488809 -1.0143316 0.097030871 30 9
-1.5504591 -1.0145922 0.16210969 21 10
-1.5484562 -1.0125097 0.22716448 11 11
-1.5443604 -1.0094467 0.29221961 27 12
-1.5467392 -1.0102313 0.35910255 47 13
-1.5402614 -1.0056169 -0.096402846 4 6
-1.5372862 -1.0032918 0.42380777 48 14
-1.5490146 -1.0109463 -0.032286953 8 7
-1.5322269 -0.99960864 0.49020329 55 15
-1.5455714 -1.005241 0.032182239 30 8
-1.5457135 -1.0045654 0.096612185 31 9
-1.5389528 -0.99940771 0.16054088 22 10
-1.5518054 -1.0073692 0.22716448 13 11
-1.5478748 -1.0040498 0.29221961 27 12
-1.5352554 -0.99548352 0.35566798 48 13
-1.5402358 -0.99833095 -0.096193492 4 6
-1.5422403 -0.99924809 0.42425767 49 14
-1.552534 -1.0055329 -0.032286953 7 7
-1.521112 -0.98480505 0.48554453 59 15
-1.5339502 -0.99007964 0.031868093 26 8
-1.5492105 -0.99916399 0.096612185 26 9
-1.5422585 -0.9942987 0.16054088 22 10
-1.5436306 -0.99442118 0.22545831 14 11
-1.5513701 -0.99864048 0.29221961 27 12
-1.5304658 -0.98480695 0.35375988 53 13
-1.5353123 -0.98754609 -0.095670134 5 6
-1.5309665 -0.98437309 0.42020854 54 14
-1.5577166 -1.0011885 -0.032321859 5 7
-1.5342922 -0.98575473 0.48865038 60 15
-1.5491841 -0.9922688 0.032112427 22 8
-1.5409133 -0.98621356 0.09587948 28 9
-1.5490766 -0.9910565 0.16088949 22 10
-1.5353849 -0.98154193 0.22375213 15 11
-1.5481876 -0.98896593 0.29096815 24 12
-1.5239662 -0.9731186 0.3514702 57 13
-1.5252819 -0.973584 -0.094832763 5 6
-1.5311075 -0.97692698 0.41930875 55 14
-1.567946 -1.0000463 -0.032461476 5 7
-1.5246923 -0.97208452 0.48450929 61 15
-1.5425123 -0.98041952 0.031902999 17 8
-1.5458611 -0.98216927 0.095984153 26 9
-1.5491623 -0.98350787 0.16054088 25 10
-1.5304205 -0.97085953 0.22253343 16 11
-1.5414492 -0.9774791 0.28909093 27 12
-1.537304 -0.97409791 0.35375988 60 13
-1.5438563 -0.97787261 -0.095774807 6 6
-1.5180439 -0.96115136 0.41480973 57 14
-1.5509793 -0.98200452 -0.032042619 5 7
-1.5311723 -0.96908933 0.48554453 59 15
-1.5643584 -0.98703671 0.032286953 16 8
-1.5425223 -0.97250611 0.095565468 23 9
-1.5390997 -0.96959829 0.15914638 24 10
-1.5420306 -0.9710682 0.22375213 19 11
-1.5314765 -0.9636761 0.28658798 25 12
-1.5405258 -0.9689945 0.35375988 60 13
-1.5301825 -0.96211642 -0.09472809 6 6
-1.5261724 -0.95922339 0.41615945 58 14
-1.5408517 -0.96807402 -0.031763379 4 7
-1.5230937 -0.95654696 0.48192108 67 15
-1.5440654 -0.96671379 0.031798285 12 8
-1.5442142 -0.96605682 0.095460795 26 9
-1.532171 -0.95815068 0.15810052 28 10
-1.5504608 -0.96883565 0.22448336 19 11
-1.5331557 -0.95727772 0.28627509 26 12
-1.5340728 -0.95710689 0.3514702 60 13
-1.5370883 -0.95861501 -0.094937436 6 6
-1.5228976 -0.94976491 0.41435984 59 14
-1.5408275 -0.96057409 -0.03169357 4 7
-1.5116674 -0.94202894 0.47726235 65 15
-1.5425018 -0.95788318 0.03169357 11 8
-1.5426533 -0.95723128 0.095146775 20 9
-1.5305932 -0.94937789 0.15757757 27 10
-1.535441 -0.95164299 0.22180222 22 11
-1.5400126 -0.95373243 0.28690085 24 12
-1.5242149 -0.94321293 0.34841725 61 13
-1.5371941 -0.95087379 -0.09472809 6 6
-1.5329975 -0.94827783 0.41615945 61 14
-1.5443381 -0.95491987 -0.03169357 4 7
-1.5167534 -0.93749744 0.47777998 67 15
-1.5511103 -0.95536929 0.031798285 9 8
-1.5444505 -0.95052397 0.095042109 20 9
-1.5459414 -0.95106953 0.15879777 30 10
-1.5287721 -0.93977153 0.22033979 22 11
-1.5340099 -0.94262248 -0.22107102 1 4
-1.5401314 -0.94601381 0.28627509 24 12
-1.5243152 -0.93556619 0.34765401 57 13
-1.5202404 -0.93269944 -0.093472026 6 6
-1.5281577 -0.93755686 0.41390994 63 14
-1.554646 -0.95343524 -0.03183319 4 7
-1.5185322 -0.93092263 0.47726235 65 15
-1.53583 -0.93821067 0.03141433 6 8
-1.5428095 -0.94173545 0.09472809 18 9
-1.5494168 -0.94539696 0.15879777 23 10
-1.5288162 -0.93209559 0.21985231 21 11
-1.5267186 -0.93008542 0.28314641 19 12
-1.52438 -0.92793125 0.34689078 57 13
-1.528767 -0.93023616 -0.093786038 7 6
-1.5116063 -0.91979414 0.40851113 62 14
-1.5410457 -0.93733853 -0.031484142 5 7
-1.5219339 -0.92535061 0.47726235 63 15
-1.5557028 -0.94402349 0.031763379 3 8
-1.5421815 -0.9350822 0.094518751 13 9
-1.5249534 -0.92427212 0.15600878 20 10
-1.5281793 -0.92549831 0.21936484 22 11
-1.5227113 -0.92146093 0.28189492 20 12
-1.5303252 -0.92570305 0.34765401 55 13
-1.5364863 -0.92906374 -0.094100058 6 6
-1.5243353 -0.92135358 0.41121054 62 14
-1.5301274 -0.92448956 -0.031204903 5 7
-1.5114437 -0.91284096 0.47312123 61 15
-1.5418566 -0.92827338 0.03141433 2 8
-1.5368788 -0.92454535 0.093995392 11 9
-1.5213403 -0.91483682 0.15531152 22 10
-1.5382068 -0.9242478 0.22033979 19 11
-1.5276123 -0.9171564 0.28220782 18 12
-1.5301803 -0.91833496 0.34689078 55 13
-1.5328689 -0.91958511 -0.093681373 6 6
-1.525871 -0.9150244 0.41076064 61 14
-1.5333452 -0.91914272 -0.031204903 5 7
-1.5013638 -0.89961571 0.4689801 61 15
-1.5571051 -0.93006372 0.031658668 1 8
-1.5521019 -0.92634046 0.09472809 10 9
-1.5245245 -0.90952075 0.15531152 17 10
-1.534603 -0.91480738 0.21936484 22 11
-1.524016 -0.90777493 0.28095633 18 12
-1.50976 -0.89892697 0.34154812 51 13
-1.532637 -0.91218585 -0.093472026 6 6
-1.5290557 -0.90969253 0.41076064 58 14
-1.5348256 -0.91276258 -0.031169999 5 7
-1.5078161 -0.89634389 0.47001541 59 15
-1.55002 -0.91850615 0.031449236 1 8
-1.5398585 -0.9117586 0.093786038 7 9
-1.5295625 -0.90494138 0.15548584 15 10
-1.5207006 -0.89934009 0.21692745 19 11
-1.5390798 -0.90948457 0.28314641 15 12
-1.5198071 -0.89737976 0.34307459 48 13
-1.5204902 -0.89742529 -0.092529982 5 6
-1.5223092 -0.89814109 0.40806124 58 14
-1.5225016 -0.89825457 -0.030855855 5 7
-1.5175918 -0.89500052 0.47208595 58 15
-1.5637205 -0.91889757 0.031658668 1 8
-1.532699 -0.90030837 0.093158014 7 9
-1.5241206 -0.89455414 0.15461428 12 10
-1.5222745 -0.89275575 0.21668372 15 11
-1.5371327 -0.90110958 0.28220782 14 12
-1.5246242 -0.8930614 0.34345621 44 13
-1.5339545 -0.89816767 -0.093158014 5 6
-1.5203896 -0.8898682 0.40671152 53 14
-1.525628 -0.8929342 -0.030855855 5 7
-1.5240417 -0.89164871 0.47312123 59 15
-1.549485 -0.90363288 0.031309616 1 8
-1.5410094 -0.89796948 0.093472026 6 9
-1.5082941 -0.87820077 0.15269686 11 10
-1.5389519 -0.8956911 0.21863361 14 11
-1.5266079 -0.88779402 0.27970487 12 12
-1.5258802 -0.88701397 0.34307459 41 13
-1.5351977 -0.89207244 -0.093053341 4 6
-1.5216469 -0.88384306 0.40626162 49 14
-1.5218184 -0.88358706 -0.030716237 5 7
-1.5154488 -0.87953568 0.46949777 56 15
-1.5734007 -0.91023499 0.031728476 1 8
-1.5336045 -0.88685566 0.092843994 6 9
-1.5163736 -0.8761847 0.1532198 9 10
-1.5351924 -0.8863439 0.21765867 11 11
-1.5278326 -0.8817392 0.279392 11 12
-1.5238646 -0.87874031 0.34192973 41 13
-1.5296504 -0.88172096 -0.092529982 2 6
-1.5281 -0.88047153 0.40716141 48 14
-1.5247401 -0.87853563 -0.030716237 5 7
-1.509987 -0.86968452 0.46690959 50 15
-1.5625367 -0.8970474 0.031449236 1 8
-1.5522833 -0.8904407 0.093786038 6 9
-1.5021367 -0.86097872 0.15147668 7 10
-1.5226214 -0.87236643 0.21546502 10 11
-1.5240437 -0.87247545 0.27814052 9 12
-1.5216585 -0.87075686 0.34078491 36 13
-1.5412344 -0.88160193 -0.093053341 1 6
-1.5225525 -0.87056321 0.40491191 43 14
-1.5243249 -0.87122363 -0.030646425 5 7
-1.5146909 -0.8653667 0.46742722 48 15
-1.5552322 -0.88565069 0.031239808 1 8
-1.5692695 -0.89291871 0.094623417 5 9
-1.5223023 -0.86584306 0.1532198 7 10
-1.5256573 -0.86704612 0.21546502 9 11
-1.540822 -0.87495303 0.28064346 9 12
-1.5144445 -0.8596251 0.33849517 34 13
-1.5512508 -0.88015914 -0.093472026 0 6
-1.5204968 -0.86235899 0.40356219 42 14
-1.5273569 -0.86589736 -0.030646425 5 7
-1.5126601 -0.85721672 0.46587428 48 15
-1.5583142 -0.88021648 0.031239808 1 8
-1.5619406 -0.88154578 0.093995392 3 9
-1.530672 -0.86319327 0.15374273 6 10
-1.5338622 -0.86463964 0.21619622 8 11
-1.5352612 -0.86472213 0.27907911 9 12
-1.5261393 -0.85888326 0.34040326 37 13
-1.5335777 -0.86271656 -0.092215963 0 6
-1.5236474 -0.85678023 0.40356219 42 14
-1.523398 -0.85664004 -0.030506806 5 7
-1.5206954 -0.85477108 0.46742722 47 15
-1.5475724 -0.86668193 0.030960569 1 8
-1.5562943 -0.87121016 0.093472026 2 9
-1.5284593 -0.85492718 0.1532198 6 10
-1.538754 -0.8599804 0.21643998 6 11
-1.5261987 -0.85261399 0.27688903 9 12
-1.5274141 -0.85259354 0.34002164 35 13
-1.5249268 -0.85050762 0.40311229 39 14
-1.5089145 -0.84157693 -0.030157758 5 7
-1.5101711 -0.84193188 0.4632861 47 15
-1.5486898 -0.86057383 0.030925665 2 8
-1.5453566 -0.85801625 0.092634656 1 9
-1.5296918 -0.84862041 0.15304548 6 10
-1.538125 -0.85294783 0.2159525 5 11
-1.5308932 -0.848239 0.27720189 8 12
-1.5199282 -0.84181684 0.33773196 33 13
-1.5277387 -0.84544605 0.40311229 39 14
-1.5398403 -0.85179156 -0.030716237 5 7
-1.5131009 -0.83665526 0.4632861 45 15
-1.5201602 -0.83778948 0.030297378 3 8
-1.5553406 -0.85646993 0.093053341 1 9
-1.5272613 -0.84066075 0.15252255 4 10
-1.5323964 -0.84279013 0.21473379 3 11
-1.5407697 -0.84669536 0.27845338 7 12
-1.514254 -0.83177972 0.33582386 26 13
-1.5323889 -0.84104568 0.40356219 35 14
-1.5357915 -0.84256393 -0.030576617 5 7
-1.5075426 -0.82672429 0.46069792 44 15
-1.5371131 -0.84015065 0.030576617 4 8
-1.5302743 -0.83571917 0.091378585 1 9
-1.5301863 -0.83532447 0.15252255 5 10
-1.5196443 -0.8288812 0.21254015 2 11
-1.533309 -0.83563972 0.27657616 6 12
-1.5154241 -0.82555014 0.33544225 22 13
-1.5284693 -0.83196455 0.4017626 31 14
-1.5281839 -0.83146399 -0.030367188 5 7
-1.5104192 -0.82145685 0.46069792 45 15
-1.5330043 -0.83096814 0.030436996 6 8
-1.538451 -0.83322591 0.091692604 3 9
-1.5225803 -0.82428664 0.15147668 5 10
-1.5347507 -0.83018285 0.21424633 1 11
-1.5292652 -0.82652587 0.2753247 5 12
-1.5165691 -0.81932205 0.3350606 18 13
-1.5193599 -0.82014471 0.39861327 29 14
-1.5451558 -0.83372104 -0.030646425 5 7
-1.5200789 -0.81984735 0.46276847 45 15
-1.5235659 -0.81898463 0.030192664 7 8
-1.5325524 -0.82312542 0.091169246 5 9
-1.5236926 -0.81802475 0.15130237 6 10
-1.5288925 -0.82012862 0.21302763 2 11
-1.5321411 -0.82118261 0.2753247 3 12
-1.5176892 -0.81309605 0.33467901 13 13
-1.5256497 -0.81667548 0.3995131 29 14
-1.530425 -0.81888813 -0.030297378 4 7
-1.5110068 -0.80815876 0.45914501 42 15
-1.5228864 -0.81177962 0.030122854 9 8
-1.5160251 -0.80744332 0.090017848 6 9
-1.5195044 -0.80895555 0.15060511 6 10
-1.5315095 -0.81397521 0.27469894 2 12
-1.5118493 -0.8031882 0.33277091 11 13
-1.5302124 -0.81225866 0.39996299 26 14
-1.5562379 -0.82572526 -0.030751141 2 7
-1.5001652 -0.79563814 0.45500392 44 15
-1.5133353 -0.79991746 0.029878521 12 8
-1.5258988 -0.80587703 0.090436541 7 9
-1.5240809 -0.80457669 0.15077944 7 10
-1.5275576 -0.80573046 0.21205269 2 11
-1.5168658 -0.79941475 0.27157027 1 12
-1.5278648 -0.80418956 0.39861327 21 14
-1.5431834 -0.81190819 -0.030436996 2 7
-1.5097727 -0.79399347 0.45707443 42 15
-1.5196605 -0.79648697 0.02994833 12 8
-1.5110095 -0.79128009 0.089389823 9 9
-1.5145236 -0.79278415 0.14955924 8 10
-1.5441577 -0.80692291 0.27595043 1 12
-1.516842 -0.79163796 0.39501405 17 14
-1.5690564 -0.81854022 -0.030890759 1 7
-1.5091089 -0.78693247 0.45603919 41 15
-1.5242058 -0.7920996 0.029983234 12 8
-1.5084444 -0.78324008 0.089075804 10 9
-1.5172818 -0.78749257 0.14955924 10 10
-1.5005579 -0.77648669 0.39006513 12 14
-1.5701278 -0.81213981 -0.030855855 0 7
-1.5066987 -0.77899772 0.45448625 41 15
-1.5287391 -0.78769016 0.030018138 12 8
-1.5181358 -0.78189152 0.089494489 15 9
-1.5076201 -0.77580982 0.14833906 11 10
-1.5119283 -0.77569211 0.39231464 9 14
-1.5621371 -0.80145168 -0.030646425 0 7
-1.5023974 -0.7704711 0.4524157 41 15
-1.5117559 -0.77260607 0.029634187 12 8
-1.5226347 -0.77749574 0.08959917 19 9
-1.5138687 -0.77235353 0.14868769 15 10
-1.5162292 -0.77155781 0.39276454 7 14
-1.5471015 -0.78692782 -0.030297378 0 7
-1.4964678 -0.76084405 0.44982749 41 15
-1.5037407 -0.76190192 0.029424759 12 8
-1.5341135 -0.77695411 0.090122528 27 9
-1.5021996 -0.76013249 0.1472932 18 10
-1.5189131 -0.76626045 0.39276454 6 14
-1.4972575 -0.7550078 0.44930989 39 15
-1.4919648 -0.74972808 0.029145518 9 8
-1.499333 -0.75277483 0.087924413 23 9
-1.5084057 -0.75667089 0.14764182 20 10
-1.6091985 -0.80547494 -0.094309397 0 6
-1.5057609 -0.75337166 0.38871542 5 14
-1.499884 -0.74977642 0.44930989 41 15
-1.4982828 -0.74603689 0.029215328 7 8
-1.5074465 -0.74994332 0.088238433 24 9
-1.5163896 -0.75406229 0.14816476 23 10
-1.5365462 -0.76274866 -0.15008219 0 5
-1.5548828 -0.77117425 -0.090959899 0 6
-1.5120038 -0.74957925 0.38961524 3 14
-1.5095464 -0.74770421 0.45138043 38 15
-1.5080503 -0.74434298 0.029354947 5 8
-1.5064726 -0.74290997 0.088029087 21 9
-1.4993547 -0.73907495 0.14624733 20 10
-1.4748428 -0.7257126 -0.14380698 0 5
-1.5468109 -0.76045525 -0.090331867 0 6
-1.5198581 -0.74687475 0.39096493 2 14
-1.5000083 -0.73647052 0.44775698 32 15
-1.4836959 -0.72589231 0.028831376 2 8
-1.5035454 -0.73527795 0.087715074 14 9
-1.4947648 -0.73033804 0.14555009 20 10
-1.5566378 -0.75855082 -0.09075056 1 6
-1.5364717 -0.74839169 0.39456415 2 14
-1.4989686 -0.72980088 0.44672167 29 15
-1.4806974 -0.71834958 0.02872666 1 8
-1.5096972 -0.73176771 0.087924413 9 9
-1.493719 -0.72337872 0.14520147 13 10
-1.5591446 -0.75338465 -0.09075056 1 6
-1.5266616 -0.73735964 0.39141485 1 14
-1.4945471 -0.72120595 0.44465113 25 15
-1.524646 -0.73310733 0.029529471 1 8
-1.5013148 -0.7215662 0.087296382 7 9
-1.4979055 -0.71928412 0.14537577 8 10
-1.5091872 -0.72340506 -0.14642164 1 5
-1.5329436 -0.73413444 -0.089075804 3 6
-1.5186797 -0.72697759 0.38871542 1 14
-1.5108718 -0.72291636 0.44879225 25 15
-1.5162386 -0.72288394 0.029320043 1 8
-1.4912022 -0.71030885 0.086563677 5 9
-1.4968091 -0.71233827 0.14502715 6 10
-1.5425862 -0.73247403 -0.089494489 4 6
-1.5034771 -0.71358162 0.3842164 1 14
-1.5046583 -0.71349937 0.44620407 22 15
-1.5657616 -0.73979825 0.030227568 1 8
-1.4882543 -0.70254147 0.086249664 2 9
-1.4937572 -0.70482081 0.14450422 5 10
-1.5342909 -0.72198224 -0.088866465 5 6
-1.5130123 -0.71164721 0.38601601 1 14
-1.5001463 -0.70495588 0.44413349 16 15
-1.5683346 -0.73432779 0.030227568 1 8
-1.4997429 -0.70157397 0.086773023 0 9
-1.4817699 -0.69285071 0.14310972 1 10
-1.5440421 -0.71999878 -0.08928515 6 6
-1.4995905 -0.69895202 0.38196689 1 14
-1.4815823 -0.68992919 0.43792182 11 15
-1.4913104 -0.69129473 0.086144991 0 9
-1.495026 -0.69269967 0.14415559 0 10
-1.5229762 -0.70371383 -0.087924413 7 6
-1.4896371 -0.68799353 0.37881759 1 14
-1.5050311 -0.69446605 0.44413349 9 15
-1.5626832 -0.71776277 0.090122528 0 9
-1.5191631 -0.69745231 0.14624733 0 10
-1.5163435 -0.69423622 -0.087401055 8 6
-1.4991175 -0.68603313 0.38061717 1 14
-1.4986614 -0.68519187 0.44154531 7 15
-1.5650547 -0.71257704 0.090122528 0 9
-1.5114819 -0.68563896 -0.086982369 8 6
-1.5068276 -0.68321025 0.38196689 0 14
-1.5097233 -0.68420553 0.44413349 6 15
-1.5675327 -0.70710927 0.090122528 0 9
-1.5101041 -0.67898488 -0.086773023 9 6
-1.4980032 -0.67260134 0.4399924 5 15
-1.512465 -0.67370945 -0.086773023 10 6
-1.530988 -0.68131989 -0.029250234 0 7
-1.5038724 -0.66893852 0.44102767 2 15
-1.4983622 -0.66116869 -0.085830979 14 6
-1.5626333 -0.68887794 -0.029808709 0 7
-1.499127 -0.66056865 0.43895712 0 15
-1.5856861 -0.69606751 0.030227568 1 8
-1.5026056 -0.65647238 -0.085935652 16 6
-1.5357072 -0.67061466 -0.029250234 0 7
-1.5120468 -0.65996879 0.44206294 1 15
-1.5086677 -0.65254641 -0.086144991 18 6
-1.5321892 -0.66208541 0.44723931 0 15
-1.5109364 -0.64727616 -0.086144991 21 6
-1.5558034 -0.66585433 0.45345098 0 15
-1.5093976 -0.64070129 -0.085935652 27 6
-1.5042601 -0.63233268 -0.085516959 31 6
-1.4989737 -0.62426943 -0.085098274 36 6
-1.5250219 -0.63449305 -0.028831376 0 7
-1.4919114 -0.61522645 -0.084574915 32 6
-1.5123268 -0.62333649 -0.028552137 0 7
-1.4883966 -0.60800982 -0.084260903 20 6
-1.4996821 -0.61200875 -0.028272899 1 7
-1.4905099 -0.60281062 -0.084260903 6 6
-1.5035572 -0.60778201 -0.028307803 1 7
-0.51977712 -0.18949169 -0.028994123 11 6
-1.6657263 -0.60364211 0.030925665 1 8
-0.58619434 -0.21138975 -0.032657638 15 6
-1.6602935 -0.59512532 0.030786045 1 8
-0.55871099 -0.19927773 -0.031087562 10 6
-1.6698997 -0.59199882 0.030925665 1 8
-0.50666481 -0.17872322 -0.028156748 12 6
-1.6568594 -0.58087343 0.030646425 1 8
-0.54877359 -0.19142553 -0.030459529 11 6
-1.6739918 -0.58032668 0.030925665 1 8
-1.643702 -0.56886131 0.15217392 0 10
-0.53433371 -0.1842988 -0.029622154 11 6
-1.6797909 -0.57577616 0.030995475 1 8
-0.4971664 -0.16953985 -0.027528716 12 6
-1.6893661 -0.57247621 0.031135093 1 8
-0.49396998 -0.1665273 -0.027319372 12 6
-1.6837697 -0.564035 0.030995475 1 8
-1.7160025 -0.56851035 0.03155395 1 8
-1.7141756 -0.5612728 0.031484142 1 8
-1.7275399 -0.55897945 0.03169357 1 8
-1.7142427 -0.54807395 0.03141433 1 8
-1.754845 -0.55835593 0.35795769 0 13
-1.7456892 -0.55477178 -0.031972811 5 7
-1.7829062 -0.56078029 0.36330032 0 13
-1.7552464 -0.55107069 -0.032112427 4 7
-1.7811031 -0.55338824 0.36253712 0 13
-1.7818923 -0.55295157 -0.03256619 3 7
-1.8029308 -0.55258805 -0.032915238 2 7
-1.8279126 -0.55292398 -0.033334095 2 7
-1.848992 -0.5522629 -0.033683144 1 7
-1.858485 -0.54839206 -0.033822764 1 7
-1.8776671 -0.54693449 -0.034136906 0 7
-3.9566565 -0.60545373 0.92409897 24 14
-3.9356179 -0.58818215 0.9187001 29 14
-12.014429 1.3688704 0.21106941 3 8
-12.007592 1.4105673 0.21103451 5 8
-11.682223 1.4364648 -0.20544973 3 7
-11.655317 1.4744744 -0.20506579 4 7
-11.984227 1.5352154 0.21089488 7 8
-11.965129 1.537011 0.63221842 9 9
-11.975211 1.5404334 1.0563276 11 10
-11.997753 1.5475875 1.4853437 8 11
-11.648115 1.5148896 -0.20503086 9 7
-11.970865 1.5759951 0.21075526 8 8
-11.971736 1.5824867 1.0565019 13 10
-11.992277 1.5894612 1.4853437 8 11
-11.640774 1.5552781 -0.20499596 9 7
-11.955383 1.6164294 0.21058075 14 8
-11.969939 1.622655 0.63305581 11 9
-11.960216 1.6234597 1.0559789 14 10
-11.994525 1.6323836 1.4863187 9 11
-11.653105 1.5983484 -0.20531012 9 7
-11.933822 1.6559532 0.21030149 5 8
-11.961228 1.6703988 1.4829062 6 11
-11.978401 1.6770598 1.9156966 9 12
-11.649435 1.6392946 -0.20534502 11 7
-11.941827 1.6995724 0.21054582 5 8
-11.952536 1.7074819 1.0563276 11 10
-11.965151 1.7135458 1.484125 8 11
-7.7723179 1.1491008 -0.137141 2 7
-7.859417 1.1886239 -0.13874663 4 7
-11.686463 1.8739606 0.62028581 6 9
-11.692691 1.8812391 1.4541451 8 11
-11.703068 1.8870965 1.8775268 10 12
-7.8800955 1.2762966 -0.13934001 8 7
-11.675034 1.909766 0.20649688 14 8
-11.660142 1.911512 0.61923909 6 9
-11.694295 1.9192036 1.0368047 21 10
-11.689972 1.9226875 1.4546326 14 11
-11.696408 1.9279395 1.8775268 9 12
-7.8400817 1.2979169 -0.13871174 12 7
-11.688018 1.953805 0.20684592 30 8
-11.667187 1.9545093 0.61997181 27 9
-11.700936 1.9643648 1.0380249 39 10
-11.69885 1.9661109 1.4565825 27 11
-11.683763 1.9677718 1.876588 15 12
-7.8335319 1.3249408 -0.13867682 9 7
-11.674866 1.9956201 0.20674121 3 8
-7.6885891 1.3252866 1.5165499 2 13
-7.6475716 1.3209653 -0.13546558 8 7
-7.5824475 1.3219849 0.13434863 2 8
-11.689029 2.040061 0.62185591 4 9
-11.667667 2.04053 1.0362817 7 10
-7.5924077 1.3305508 0.94643742 1 11
-11.675937 2.0482767 1.8775268 6 12
-7.7829752 1.3709465 -0.13794382 6 7
-11.060881 1.9662594 0.19609523 4 8
-11.670038 2.0787497 0.62122786 31 9
-11.688297 2.0841069 1.038722 46 10
-11.68427 2.0918059 1.8800297 22 12
-10.758054 1.9279253 2.1244676 3 13
-10.912284 1.9791634 0.1935821 4 8
-11.64306 2.1159022 0.62018114 20 9
-11.671151 2.1231115 1.0378506 55 10
-11.672582 2.1275811 1.4568262 41 11
-11.669125 2.1311598 1.8787781 28 12
-10.747395 1.9647603 2.1237042 3 13
-7.9817066 1.4634763 -0.14164373 1 7
-8.539113 1.5672195 2.3262658 2 15
-7.9715323 1.4745585 0.14150412 1 8
-11.698512 2.1787517 1.8847226 3 12
-7.976706 1.4870365 1.5772274 2 13
-7.8035731 1.4589887 -0.13857211 8 7
-8.180398 1.530919 2.229985 3 15
-7.6990891 1.4519732 0.13675706 9 8
-7.673501 1.4499234 0.40926722 5 9
-7.6702018 1.4506845 0.6829524 9 10
-7.7644787 1.4713244 0.9703238 2 11
-7.7123809 1.4642411 1.2433413 6 12
-7.6995144 1.4631906 1.523419 11 13
-7.7148309 1.4688914 1.8131055 8 14
-7.6275353 1.4536501 -0.13553539 31 7
-7.7651153 1.4812763 2.118175 6 15
-7.6095328 1.4626092 0.13525616 42 8
-7.6193633 1.4672568 0.40665042 19 9
-7.6181383 1.4683996 0.67876893 16 10
-7.6180096 1.4738932 1.2289493 28 12
-7.6249728 1.476619 1.5096809 52 13
-7.6350465 1.4813368 1.7955593 38 14
-7.6184893 1.4795022 -0.13546558 49 7
-7.6138783 1.4799876 2.0783172 37 15
-7.6141925 1.4910861 0.13543068 46 8
-7.608315 1.4926909 0.4063364 22 9
-7.636076 1.5050583 1.2327038 47 12
-7.6313281 1.5055063 1.5119705 62 13
-7.6413002 1.5102446 1.7982588 45 14
-7.6257215 1.5099332 2.0829759 58 15
-4.5560241 0.91120976 0.40649435 73 10
-4.570003 0.91649431 -0.57229847 6 4
-4.5729675 0.91791904 -0.40806317 10 5
-4.6067352 0.92804414 -0.08202631 1 7
-4.5552683 0.92926335 0.57083601 9 11
-4.5662246 0.93398881 0.90596116 2 13
-4.5094395 0.92483497 -0.080350876 1 7
-4.4727321 0.92462987 0.079722598 1 8
-4.5027299 0.93328971 0.40231091 4 10
-4.5092373 0.93628025 0.56547379 6 11
-4.4860544 0.93391693 0.89069647 2 13
-4.4141812 0.92136574 -0.078710355 3 7
-4.3833752 0.9221229 0.07818678 1 8
-4.3961215 0.92720807 0.3930724 3 10
-4.4068885 0.93108696 0.55304313 6 11
-4.3982592 0.93166959 0.8739053 2 13
-4.3522558 0.92430604 -0.077663213 3 7
-4.331244 0.92695707 0.077314161 2 8
-4.3373613 0.92984855 0.23247635 1 9
-4.3071437 0.92415774 0.38540271 1 10
-4.3182178 0.92810959 0.54231864 6 11
-4.3201313 0.93088752 0.85902214 3 13
-4.2708182 0.92260391 -0.076267019 3 7
-4.2576399 0.92675912 0.076057591 2 8
-4.2521296 0.92711425 0.22808012 1 9
-4.2454934 0.92644352 0.38017333 1 10
-4.2490153 0.92876589 0.53403151 6 11
-4.2554874 0.93251532 0.84681034 2 13
-4.1757751 0.91733927 -0.07462649 3 7
-4.1606617 0.92087215 0.074382156 2 8
-4.1944318 0.92911434 0.2251493 1 9
-4.1644306 0.92399377 0.37320086 1 10
-4.1643591 0.92550415 0.52379447 6 11
-4.1708121 0.92770213 0.67673558 2 12
-4.1525598 0.92516363 0.82696623 2 13
-4.0946426 0.91376024 -0.073230296 3 7
-4.0756431 0.9162432 0.07291615 2 8
-4.0937395 0.92181361 0.2199157 1 9
-4.0814939 0.92055213 0.36605412 3 10
-4.091558 0.92357349 0.51501989 6 11
-4.1020398 0.92744333 0.66609806 2 12
-4.1015987 0.92809707 0.81742579 3 13
-4.0251231 0.91300797 -0.072043538 4 7
-4.0956388 0.92975456 1.1253452 3 15
-4.0022397 0.91442961 0.071659587 2 8
-4.0400376 0.92380756 0.21719423 3 9
-4.0065608 0.91762435 0.3596046 3 10
-4.034133 0.92542237 0.50819516 6 11
-4.0257802 0.92424482 0.65420902 4 12
-4.0218005 0.92480993 0.80216104 3 13
-4.0544147 0.93379974 0.96054095 1 14
-3.9967401 0.92051631 -0.071589775 4 7
-4.0398235 0.93118167 1.1108514 3 15
-3.9329538 0.91233283 0.070472814 2 8
-3.951189 0.91801733 0.21258868 1 9
-3.9528792 0.91986334 0.3550725 1 10
-3.9382417 0.91718262 0.49649575 6 11
-3.9763603 0.92752248 0.64670014 2 12
-3.9479735 0.92162848 0.78804117 2 13
-3.9715989 0.92860454 0.94164515 1 14
-3.9331422 0.92033798 -0.07050772 1 7
-3.916121 0.9228453 0.070228487 1 8
-3.9246345 0.92629755 0.2113326 1 9
-3.9260149 0.93313605 -0.070437916 3 7
-3.9206545 0.93837047 0.070368104 4 8
-3.9077816 0.93673271 0.21059991 6 9
-3.9173007 0.9404605 0.35245782 3 10
-3.9433234 0.9474358 0.49795815 1 11
-4.0386162 0.97331482 0.80750376 1 13
-3.8994074 0.94120449 -0.070019051 9 7
-3.9210753 0.95368034 0.070437916 1 8
-3.9568839 0.96312016 0.21342604 1 9
-3.9159298 0.95460063 0.35263211 1 10
-6.2076821 1.5155654 0.78459489 1 11
-3.8562989 0.96577406 0.069390766 1 8
-3.8523276 0.96835262 0.48772117 0 11
-3.8195388 0.96436399 -0.068762481 12 7
-3.8102667 0.9683919 0.068622865 15 8
-3.7994795 0.96706325 0.20547098 10 9
-3.8016326 0.96831673 0.34321931 9 10
-3.8104539 0.97198093 0.48284638 7 11
-3.8316586 0.97881454 0.62636369 1 12
-3.8878627 0.99389493 0.78002721 1 13
-3.8200233 0.97868353 -0.068832293 6 7
-3.8223541 0.98568106 0.068902098 5 8
-3.8038166 0.98231679 0.20588967 3 9
-3.8098035 0.98457217 0.34426519 1 10
-3.8166466 0.98776197 0.48406506 3 11
-3.8511651 0.99813092 0.63011813 1 12
-4.0211968 1.0429471 0.80750376 1 13
-3.8127134 0.991005 -0.068762481 8 7
-3.7995443 0.9939568 0.068553053 6 8
-3.819685 1.0006502 0.20693639 4 9
-3.8100235 0.99954045 0.34461379 3 10
-3.8170154 1.0020868 0.48455253 3 11
-3.8323739 1.0075488 0.62761515 1 12
-3.8654623 1.0176916 0.77697426 1 13
-3.813098 1.0053275 -0.068832293 8 7
-3.799741 1.0089025 0.068622865 5 8
-3.8296807 1.0175676 0.20766909 4 9
-3.8045857 1.0123216 0.34443948 3 10
-3.8037262 1.0135146 0.48333386 4 11
-3.8479207 1.0260097 0.6307438 1 12
-3.8505061 1.0281388 0.77468461 1 13
-3.8263264 1.0223979 -0.20756441 1 6
-3.8153608 1.0201824 -0.068937011 8 7
-3.8098915 1.0251346 0.068867192 11 8
-3.8126061 1.0272921 0.20693639 9 9
-3.8125706 1.0287102 0.34548536 10 10
-3.8060935 1.0276752 0.48406506 9 11
-3.8138051 1.0311857 0.62573791 10 12
-3.822439 1.0342362 0.76972359 12 13
-3.7978532 1.0282954 -0.2062037 28 6
-3.8069878 1.0314817 0.91060191 6 14
-3.8175666 1.0350633 -0.069041722 46 7
-3.8109267 1.0339769 1.0580523 11 15
-3.8178651 1.0415854 0.069076627 81 8
-3.7993639 1.0379629 0.20641303 67 9
-3.8091383 1.0413476 0.34548536 70 10
-3.8278768 1.0471884 -0.62855375 1 3
-3.8061304 1.0426674 -0.48455253 8 4
-3.8487616 1.055068 -0.34914589 1 5
-3.8173528 1.0478907 -0.20745975 68 6
-3.7958472 1.0426996 0.90880221 82 14
-3.8004332 1.0446726 -0.068797387 86 7
-3.8180609 1.0559711 0.069146432 86 8
-3.8014915 1.0528181 0.20672706 90 9
-3.8238022 1.058997 -0.77125001 1 2
-3.8112404 1.0562333 0.3460083 100 10
-3.8146808 1.0579045 -0.62698942 8 3
-3.8007395 1.0547526 0.48430881 109 11
-3.8196826 1.0607266 -0.48674619 10 4
-3.7989001 1.0556704 0.62448645 97 12
-3.8757699 1.0770316 -0.35193488 1 5
-3.8189082 1.0619484 0.77048677 81 13
-3.8098233 1.0601395 -0.20725042 70 6
-3.7996941 1.0580344 0.91060191 89 14
-3.794837 1.0573957 -0.068762481 86 7
-3.7998934 1.0595202 1.057017 100 15
-3.8008733 1.065514 0.068902098 100 8
-3.8133636 1.0697342 0.20756441 100 9
-3.8427649 1.0787044 -0.77582937 1 2
-3.7979388 1.0668374 0.34513673 100 10
-3.8128664 1.0717485 -0.62730229 6 3
-3.8085005 1.0712374 0.48577127 123 11
-3.8085005 1.0712374 -0.48577127 10 4
-3.8086889 1.0720087 0.6266765 100 12
-3.8182888 1.07543 -0.34705415 1 5
-3.8057303 1.0726088 0.76857871 87 13
-3.8195555 1.0772259 -0.20798311 70 6
-3.8055422 1.0732738 0.91285133 100 14
-3.7951589 1.0710604 -0.068832293 96 7
-3.7926414 1.0710636 1.0559818 100 15
-3.8011663 1.0792047 0.06897191 100 8
-3.8059525 1.0812824 0.20735508 100 9
-3.8467205 1.0935892 -0.77735591 1 2
-3.8020461 1.0816059 0.34583399 100 10
-3.7883923 1.0784373 -0.62386072 7 3
-3.8011086 1.0827734 0.48528376 120 11
-3.8163819 1.0871242 -0.48723367 10 4
-3.8127124 1.0867983 0.62792808 100 12
-3.8185334 1.0891793 -0.34740278 1 5
-3.7946007 1.0830679 0.76705217 87 13
-3.794837 1.0838526 -0.20683172 72 6
-3.8057098 1.0869581 0.91375118 100 14
-3.7954316 1.0847389 -0.068902098 100 7
-3.7927833 1.084697 1.057017 100 15
-3.8014102 1.0929091 0.069041722 100 8
-3.802346 1.0938976 0.20735508 100 9
-3.8166595 1.0987358 -0.77201319 1 2
-3.8080111 1.0969657 0.34670553 100 10
-3.7980821 1.0948244 -0.62605083 8 3
-3.7936823 1.0942723 0.48479629 123 11
-3.8051264 1.0975733 -0.48625872 10 4
-3.8071892 1.0988879 0.62761515 100 12
-3.8340421 1.1073645 -0.34914589 1 5
-3.8041909 1.0994612 0.76972359 92 13
-3.798897 1.0986496 -0.20725042 82 6
-3.8002126 1.0990301 0.91330135 100 14
-3.8014178 1.1000986 -0.069076627 100 7
-3.8021545 1.1010299 1.0606405 100 15
-3.7996852 1.1060681 0.069076627 100 8
-3.7871926 1.1031486 0.20672706 100 9
-3.8243039 1.1146827 -0.7743029 1 2
-3.8120031 1.1118191 0.34740278 105 10
-3.811497 1.1123931 -0.62886661 8 3
-3.7938437 1.1079597 0.48528376 130 11
-3.8014657 1.1101856 -0.48625872 10 4
-3.8016284 1.1109532 0.62730229 104 12
-3.8016641 1.1116848 -0.34653121 2 5
-3.8080609 1.1142758 0.77125001 100 13
-3.7952328 1.1112412 -0.20725042 96 6
-3.7871959 1.108888 0.91105175 108 14
-3.7958298 1.1121364 -0.069041722 105 7
-3.7910669 1.1114593 1.0585699 100 15
-3.7936876 1.1194214 0.069041722 107 8
-3.8001676 1.1227754 0.20766909 100 9
-3.8201928 1.1286919 -0.7743029 1 2
-3.7926176 1.1212645 0.3460083 100 10
-3.8073943 1.1263556 -0.62886661 9 3
-3.7973714 1.1241113 0.48625872 132 11
-3.8047884 1.1270292 -0.48723367 10 4
-3.7897589 1.1232967 0.62605083 100 12
-3.8260198 1.134771 -0.34914589 1 5
-3.809598 1.1299005 0.7723949 100 13
-3.7911341 1.1251451 -0.20725042 46 6
-3.7903826 1.1256407 0.91285133 100 14
-3.7934484 1.1272727 -0.069076627 74 7
-3.7904751 1.1271091 1.0596052 100 15
-3.7686818 1.1263582 0.068657771 48 8
-3.7732644 1.1291617 0.20641303 48 9
-3.8385994 1.1494443 -0.77888238 1 2
-3.7560365 1.1254358 0.343045 42 10
-3.8127012 1.1431396 -0.630431 2 3
-3.7839167 1.1345093 0.48504004 50 11
-3.789423 1.136881 -0.48577127 2 4
-3.7744629 1.1331108 0.62417358 44 12
-3.7640676 1.1314225 0.76399928 32 13
-3.7449074 1.1263759 -0.20494762 22 6
-3.7694364 1.134472 0.90880221 42 14
-3.7511933 1.1289814 -0.06837853 35 7
-3.7550714 1.1308624 1.0508054 39 15
-3.7128544 1.1245122 0.067715339 31 8
-3.7368054 1.1324792 0.20463361 30 9
-3.7158613 1.1275473 0.33973309 24 10
-3.7822254 1.1484067 -0.62605083 1 3
-3.7037582 1.1252877 0.47529048 45 11
-3.7624395 1.1438326 -0.48284638 1 4
-3.7156756 1.1296157 0.61510038 33 12
-3.7075067 1.128547 0.75331396 22 13
-3.6740816 1.1190742 -0.20128411 16 6
-3.7244439 1.1351234 0.89890444 24 14
-3.6898451 1.1245784 -0.067331389 26 7
-3.6993616 1.1281843 1.0363115 29 15
-3.6613073 1.1221688 0.06684272 26 8
-3.6583643 1.1226647 0.20055141 24 9
-3.6471488 1.120616 0.33380648 19 10
-3.7217486 1.1435374 -0.61666471 1 3
-3.6468782 1.1212294 0.46846578 38 11
-3.7168844 1.1434619 -0.47748414 1 4
-3.6494074 1.1234014 0.60477573 30 12
-3.6399505 1.1211858 0.74033892 20 13
-3.6054561 1.1112489 -0.19772527 16 6
-3.6480339 1.1250699 0.88135827 24 14
-3.6266627 1.1191721 -0.066249333 22 7
-3.6381793 1.1234214 1.0202647 21 15
-3.5943427 1.1153846 0.06569086 23 8
-3.5916762 1.1152453 0.19709724 19 9
-3.5958488 1.1179163 0.3294487 21 10
-3.7026446 1.1518277 -0.61416179 1 3
-3.5955577 1.1192021 0.46237233 35 11
-3.6256866 1.1292757 -0.46627215 1 4
-3.5909674 1.1184618 0.59570253 24 12
-3.579788 1.1163505 0.72889042 20 13
-3.5557969 1.1095501 -0.19521314 16 6
-3.5659568 1.1134033 0.86246234 18 14
-3.5618491 1.1121209 -0.06513238 17 7
-3.5717394 1.115893 1.002665 21 15
-3.5372038 1.1105262 0.064713523 22 8
-3.52298 1.1074116 0.19353838 19 9
-3.5159049 1.1065372 0.32247624 17 10
-3.5331302 1.1126353 0.45481643 32 11
-3.5651228 1.123394 -0.45896 1 4
-3.5173354 1.1090117 0.58412635 23 12
-3.510536 1.1075416 0.71553379 15 13
-3.474009 1.0966834 -0.19092159 12 6
-3.5083563 1.1082004 0.84941518 18 14
-3.4759564 1.0986334 -0.063631475 15 7
-3.499671 1.1068004 0.9835124 18 15
-3.3903723 1.0774432 0.062095661 11 8
-3.3934789 1.0797347 0.18663004 9 9
-3.3546412 1.0680221 0.3080084 11 10
-3.3892665 1.0803488 0.43677977 12 11
-3.4930952 1.1141174 -0.45018539 1 4
-3.3723028 1.0762392 0.5606612 11 12
-3.3532915 1.0708159 0.68424112 11 13
-3.3464971 1.0692908 -0.18411791 13 6
-3.3466911 1.0699966 0.8111735 11 14
-3.3368735 1.0674987 -0.061153233 16 7
-3.3393955 1.0689489 0.93951315 11 15
-3.3123486 1.0653919 0.060734376 36 8
-3.3288534 1.0719829 0.18328053 35 9
-3.3300321 1.0730048 0.30609095 45 10
-3.3117952 1.0684037 0.42727396 35 11
-3.3569472 1.0836178 -0.43312368 1 4
-3.3177722 1.0716107 0.55221373 45 12
-3.3690975 1.0881883 -0.30975151 1 5
-3.314039 1.0710436 0.67699033 55 13
-3.3169787 1.0732725 0.80487484 63 14
-3.3293216 1.0779091 -0.061083425 72 7
-3.3062391 1.0710733 0.93123102 66 15
-3.3181171 1.0800425 0.060908899 67 8
-3.3174951 1.0811218 0.18286185 63 9
-3.3243725 1.0840039 0.30591667 77 10
-3.3371134 1.0888028 -0.55596817 2 3
-3.3118196 1.0811906 0.42776144 61 11
-3.3361616 1.0897808 -0.43093005 3 4
-3.3140113 1.0831854 0.55221373 63 12
-3.3349774 1.0900382 -0.30696252 1 5
-3.3196096 1.0856575 0.67889845 65 13
-3.3066812 1.0820671 -0.18233849 56 6
-3.3132119 1.0848445 0.80487484 63 14
-3.3046353 1.0826757 -0.06069947 60 7
-3.3079872 1.0844123 0.93278384 60 15
-3.3143268 1.0916184 0.060908899 70 8
-3.3118045 1.0920691 0.18275717 77 9
-3.3111079 1.0924802 0.3050451 63 10
-3.3332927 1.1004442 -0.55596817 2 3
-3.3061407 1.092121 0.42751768 74 11
-3.3379915 1.1032885 -0.43166125 2 4
-3.3120854 1.095368 0.55252659 71 12
-3.3046696 1.0929154 -0.30452216 1 5
-3.3064809 1.0941539 0.67699033 61 13
-3.3104677 1.0961142 -0.18275717 61 6
-3.3057048 1.0951782 0.80397505 67 14
-3.2970397 1.0929453 -0.060629662 65 7
-3.3023484 1.0953447 0.93226624 68 15
-3.3180847 1.105709 0.061048519 70 8
-3.3079722 1.1036229 0.18275717 78 9
-3.3072743 1.1040316 0.3050451 63 10
-3.3313046 1.1126996 -0.55628103 2 3
-3.3154871 1.1080595 0.42922387 78 11
-3.3454158 1.1187111 -0.43312368 2 4
-3.3007486 1.1044147 0.55127513 71 12
-3.3461807 1.1196162 -0.30870563 1 5
-3.3082263 1.1075588 0.67813522 62 13
-3.3217721 1.1127385 -0.18359455 62 6
-3.3074055 1.108568 0.80532479 68 14
-3.2951007 1.1050833 -0.060664564 70 7
-3.2911785 1.1044079 0.93019569 66 15
-3.2990453 1.112174 0.060769279 73 8
-3.3192387 1.1202729 0.18359455 77 9
-3.3501542 1.1307071 -0.68729407 1 2
-3.29585 1.1130189 0.30434784 63 10
-3.3292713 1.1249535 -0.55659389 2 3
-3.3097188 1.1189904 0.42898014 74 11
-3.3377295 1.1291097 -0.4326362 2 4
-3.3081 1.1197299 0.55315232 71 12
-3.3196058 1.1236243 -0.30661389 1 5
-3.3099189 1.1209894 0.67928004 63 13
-3.3140845 1.123045 -0.18338521 62 6
-3.3127432 1.123235 0.80757427 66 14
-3.2987978 1.1191486 -0.060804185 71 7
-3.2854743 1.1152679 0.92967808 68 15
-3.2932503 1.1230385 0.060734376 72 8
-3.3153083 1.1318517 0.18359455 78 9
-3.3032568 1.128382 0.30539373 71 10
-3.3178475 1.1340126 -0.55534244 2 3
-3.3001578 1.1286089 0.42824891 78 11
-3.3300116 1.1394684 -0.43214872 2 4
-3.30604 1.1319103 0.55346519 68 12
-3.289274 1.12617 -0.30417353 1 5
-3.2985566 1.1299906 0.67775363 62 13
-3.308255 1.1339589 -0.18328053 65 6
-3.3124888 1.1360563 0.80847406 66 14
-3.3100026 1.1358492 -0.061083425 71 7
-3.2980056 1.1323758 0.93433678 68 15
-3.2949812 1.1364834 0.060839087 76 8
-3.3094492 1.1427665 0.18348989 79 9
-3.3030643 1.141207 0.30574232 71 10
-3.3213367 1.148168 -0.55659389 2 3
-3.2999499 1.1414204 0.42873639 80 11
-3.3372693 1.1549809 -0.43361115 2 4
-3.3132687 1.1473213 0.55534244 68 12
-3.3229768 1.1506832 -0.30765978 1 5
-3.2964468 1.1421415 0.67813522 62 13
-3.3042765 1.1455002 -0.18328053 71 6
-3.3011389 1.145057 0.80667448 67 14
-3.3097959 1.1487079 -0.061153233 79 7
-3.2940326 1.1438812 0.93433678 67 15
-3.3023231 1.1519293 0.061048519 76 8
-3.3037558 1.1530758 0.18338521 78 9
-3.3789067 1.1799674 -0.69568962 1 2
-3.312227 1.1573294 0.30696252 74 10
-3.3322265 1.16497 -0.55909681 2 3
-3.2996929 1.1542434 0.42922387 80 11
-3.3257229 1.1639993 -0.4326362 2 4
-3.3019879 1.1556921 0.55409092 68 12
-3.2907333 1.1523986 -0.3050451 2 5
-3.3054094 1.1581857 0.68080652 63 13
-3.3077972 1.1596698 -0.18369922 71 6
-3.2952826 1.155929 0.80622458 70 14
-3.3021944 1.1583534 -0.061083425 75 7
-3.3066268 1.1605564 0.93899554 72 15
-3.3022568 1.1642036 0.061118327 73 8
-3.303477 1.1659313 0.18359455 78 9
-3.3229334 1.1734495 -0.68500435 1 2
-3.300653 1.1662294 0.30626526 72 10
-3.320895 1.1733816 -0.55784535 2 3
-3.2958472 1.1651794 0.42922387 76 11
-3.3106158 1.1710496 -0.43117377 2 4
-3.2960715 1.1665522 0.55377805 71 12
-3.3242531 1.1771801 -0.30853131 3 5
-3.3052521 1.1704514 0.68156981 63 13
-3.3114636 1.1733005 -0.18411791 70 6
-3.3024518 1.1707563 0.80892402 71 14
-3.2981308 1.1698732 -0.061083425 71 7
-3.2898114 1.167568 0.93537205 71 15
-3.292522 1.1737093 0.061013613 80 8
-3.3108799 1.1809049 0.18422259 85 9
-3.3707969 1.2029388 -0.69568962 1 2
-3.3005199 1.1785084 0.30661389 78 10
-3.3167787 1.1849666 -0.55784535 2 3
-3.3048449 1.1813534 0.43093005 84 11
-3.3326759 1.191958 -0.43458611 2 4
-3.294045 1.1781412 0.55409092 76 12
-3.2959445 1.1794704 -0.30626526 10 5
-3.2974496 1.1806573 0.68080652 71 13
-3.2904255 1.1787903 -0.18317586 100 6
-3.3001792 1.1829355 0.80937392 78 14
-3.2829387 1.1767555 -0.060873993 100 7
-3.2841034 1.177819 0.93485445 79 15
-3.2829678 1.1825883 0.060908899 130 8
-3.293586 1.1877122 0.18348989 131 9
-3.3222561 1.1987063 -0.68653083 1 2
-3.3057559 1.1934049 0.30748546 130 10
-3.3109727 1.1952882 -0.55753249 3 3
-3.291574 1.1889346 0.42971134 123 11
-3.3212371 1.2003043 -0.43361115 7 4
-3.2899125 1.1896325 0.55409092 116 12
-3.2918074 1.1909674 -0.30626526 16 5
-3.3009009 1.1942575 0.68233299 128 13
-3.2808647 1.1876559 -0.18286185 121 6
-3.3072321 1.1978538 0.81207329 134 14
-3.2938516 1.1936578 -0.061153233 145 7
-3.2763398 1.1879585 0.93381917 121 15
-3.2863355 1.1967779 0.061048519 80 8
-3.3452084 1.2188779 -0.82197118 1 1
-3.3044317 1.2046744 0.18432724 78 9
-3.3108845 1.207027 -0.68500435 2 2
-3.2942934 1.2016299 0.30678821 64 10
-3.308636 1.2075157 -0.55784535 5 3
-3.2948625 1.2031406 0.4306863 81 11
-3.3319433 1.2173401 -0.43556106 1 4
-3.3098586 1.2099261 0.55815822 63 12
-3.2969859 1.2058728 -0.30713683 2 5
-3.3104601 1.2114559 -0.18474595 37 6
-3.3030307 1.2093909 0.81207329 52 14
-3.2708786 1.2040964 0.060839087 40 8
-3.2720954 1.2058423 0.18275717 33 9
-3.2749131 1.2081791 0.30539373 24 10
-3.3412514 1.2333152 -0.56410277 1 3
-3.2645707 1.205011 0.42727396 26 11
-3.3872631 1.2509698 -0.44336072 1 4
-3.2796741 1.2118869 0.55377805 23 12
-3.2796752 1.2125378 -0.30591667 1 5
-3.2683337 1.2089931 0.67737198 20 13
-3.2647896 1.2083298 -0.18244316 27 6
-3.2620265 1.2079546 0.80307525 23 14
-3.2666857 1.20968 -0.060804185 38 7
-3.271589 1.2121459 0.93485445 20 15
-3.2402067 1.2063099 0.060350422 18 8
-3.2266908 1.2019182 0.1804544 16 9
-3.2333393 1.2056812 0.30190748 15 10
-3.2359557 1.2079434 0.42410538 20 11
-3.4349484 1.282225 -0.45018539 1 4
-3.2254596 1.2046667 0.54533058 18 12
-3.238096 1.2100295 -0.30243042 1 5
-3.2217979 1.2045808 0.66859478 13 13
-3.2044318 1.1987253 -0.17930301 15 6
-3.2123725 1.2016958 0.79182774 16 14
-3.1894035 1.1937371 -0.059442896 15 7
-3.2130635 1.2032329 0.91932529 15 15
-3.1893959 1.1994507 0.059477802 15 8
-3.1946476 1.2020614 0.17888431 15 9
-3.1864398 1.2002436 0.29789832 15 10
-3.1947837 1.2046592 0.41923055 18 11
-3.171545 1.1965299 0.53688318 15 12
-3.1445928 1.1869875 -0.29406345 1 5
-3.1737063 1.1986108 0.65943593 13 13
-3.176151 1.2001674 -0.17794226 15 6
-3.179203 1.2013206 0.78462929 16 14
-3.1648521 1.1965283 -0.059058942 15 7
-3.1620765 1.1961106 0.90586674 15 15
-3.1386666 1.192268 0.058605183 15 8
-3.1570385 1.1998765 0.17700022 15 9
-3.1358879 1.1930916 0.29354054 13 10
-3.1425385 1.196877 0.41289338 17 11
-3.1454091 1.1985997 0.53312874 15 12
-3.1071293 1.1846329 -0.29092586 2 5
-3.1220222 1.1909351 0.64951384 12 13
-3.1217723 1.1914648 -0.17511612 15 6
-3.1296854 1.1944851 0.77338171 15 14
-3.1235044 1.1927495 -0.058360845 15 7
-3.1183908 1.1914206 0.89447862 15 15
-3.1029568 1.1904919 0.0580118 13 8
-3.1045623 1.1917295 0.17427875 16 9
-3.094718 1.1891901 0.29005429 13 10
-3.0959394 1.1908998 0.40728739 17 11
-3.1008587 1.1934143 0.52624559 13 12
-3.062279 1.1791791 -0.28709102 2 5
-3.0777516 1.1857539 0.64111823 12 13
-3.0730777 1.18457 -0.17260399 13 6
-3.0893407 1.1908389 0.76438367 15 14
-3.0878143 1.1908686 -0.057767466 15 7
-3.0873878 1.1913233 0.8867141 13 15
-3.0701911 1.1920816 0.057488225 15 8
-3.0625191 1.1897178 0.17218532 15 9
-3.0602088 1.1900498 0.28726533 15 10
-3.0485868 1.1867554 0.40168139 17 11
-3.051867 1.1886456 0.51873678 12 12
-3.0389566 1.1842282 -0.28534791 2 5
-3.0437002 1.1866894 0.63501233 11 13
-3.0403874 1.186009 -0.17103392 14 6
-3.0389411 1.1860552 0.7531361 16 14
-3.032712 1.183624 -0.056825034 15 7
-3.0357928 1.1854378 0.87325549 13 15
-3.0234025 1.1854662 0.056685418 13 8
-3.0137272 1.1828874 0.16967319 13 9
-3.0078218 1.1817812 0.28273323 12 10
-3.015075 1.1852384 0.39778158 15 11
-3.0090976 1.1841015 0.5121665 13 12
-2.9810417 1.1736622 -0.28029287 2 5
-3.0105205 1.1852682 0.62890649 11 13
-2.9992719 1.181445 -0.16894048 14 6
-3.0096092 1.1861229 0.7468375 15 14
-2.985775 1.1773317 -0.056022223 15 7
-3.0010865 1.1839753 0.86445564 15 15
-2.9746261 1.1783384 0.055847701 13 8
-2.9724479 1.1786752 0.16757976 15 9
-2.9649951 1.1763195 0.27907267 13 10
-2.977711 1.1825668 0.39339426 15 11
-2.9663973 1.1792732 0.50559622 13 12
-2.9326987 1.1658765 -0.2761094 2 5
-2.9589338 1.176905 0.6189844 13 13
-2.9598708 1.1778754 -0.16695172 13 6
-2.9638088 1.1800416 0.73648977 15 14
-2.9482081 1.1744272 -0.055393942 15 7
-2.9520712 1.1765623 0.8515147 13 15
-2.9296505 1.1723698 0.055079795 13 8
-2.9423587 1.178647 0.16611435 13 9
-2.9201846 1.1703559 0.27523783 13 10
-2.9293478 1.1752152 0.38754454 14 11
-2.9347668 1.1785779 0.50090319 14 12
-2.8897848 1.1605135 -0.27244884 3 5
-2.9074435 1.1681951 0.60906237 13 13
-2.9075603 1.1688315 -0.16423026 13 6
-2.9253197 1.1765637 0.72794157 15 14
-2.9125535 1.1720197 -0.054800555 15 7
-2.9049366 1.1695439 0.83909136 12 15
-2.8940234 1.1698483 0.054486416 13 8
-2.8976996 1.1719227 0.16381156 15 9
-2.8791456 1.1655884 0.27175158 13 10
-2.8865926 1.1697769 0.38242605 17 11
-2.89606 1.1742013 0.4949587 13 12
-2.8672535 1.1631051 -0.27070573 2 5
-2.8669653 1.1635709 0.60143 12 13
-2.8646014 1.1631939 -0.16203214 13 6
-2.8762629 1.1679291 0.71669406 13 14
-2.8771558 1.1688768 -0.054207176 15 7
-2.8724077 1.1675317 0.83080912 12 15
-2.82903 1.1545053 0.053334557 10 8
-2.8290799 1.1551017 0.16014804 10 9
-2.8365343 1.1593004 0.26809105 7 10
-2.8386028 1.1613032 0.3765763 11 11
