# .PCD v0.7 - Point Cloud Data file format
VERSION 0.7
FIELDS x y z intensity ring
SIZE 4 4 4 4 2
TYPE F F F F U
COUNT 1 1 1 1 1
WIDTH 1248
HEIGHT 1
VIEWPOINT 0 0 0 1 0 0 0
POINTS 1248
DATA ascii
-3.8951523 -3.7878695 -0.47534743 1 5
-3.9092293 -3.8002331 1.0597532 13 13
-3.9102936 -3.7999403 -0.28575432 6 6
-3.9096014 -3.7979395 1.2583762 17 14
-3.904254 -3.7927449 -0.095010899 9 7
-3.8971639 -3.7845376 1.4555984 17 15
-3.9015872 -3.7782609 0.094801471 13 8
-3.9168088 -3.7903533 0.28564969 18 9
-3.9057143 -3.7769783 0.47534743 18 10
-3.9091933 -3.779022 0.66760033 5 11
-3.909842 -3.7770102 0.86101538 16 12
-3.896884 -3.7631781 -0.47395292 1 5
-3.9020383 -3.7681556 1.0544106 15 13
-3.8970084 -3.7619836 -0.28387025 6 6
-3.9165654 -3.7795413 1.2565767 17 14
-3.9030766 -3.7652106 -0.094661854 9 7
-3.8922729 -3.7534776 1.448869 17 15
-3.909642 -3.7583935 0.094661854 12 8
-3.9076295 -3.7538333 0.28397492 16 9
-3.9045041 -3.749521 0.47360432 18 10
-3.904398 -3.7468002 0.66443169 6 11
-3.9322698 -3.772229 -0.66906273 1 4
-3.9136791 -3.7530839 0.85882533 19 12
-3.89274 -3.7330039 -0.47186115 1 5
-3.9101541 -3.7483938 1.0528841 13 13
-3.8992345 -3.7366202 -0.28303289 4 6
-3.9022465 -3.7382004 1.2475786 19 14
-3.9067407 -3.7411983 -0.09441752 9 7
-3.901818 -3.7351789 1.4473162 16 15
-3.9111669 -3.7336757 0.094382621 11 8
-3.9033666 -3.7236283 0.28271887 16 9
-3.9118011 -3.7303686 0.47290704 18 10
-3.9117036 -3.7276716 0.66345674 10 11
-3.9153123 -3.7285016 0.85632241 22 12
-3.8913188 -3.7056532 -0.47011805 1 5
-3.9033072 -3.7157707 1.0475414 13 13
-3.9064665 -3.717479 -0.28261417 6 6
-3.8983281 -3.7084382 1.2421798 17 14
-3.900939 -3.7096231 -0.093963757 9 7
-3.9008307 -3.7082257 1.4421397 16 15
-3.9067607 -3.7034914 0.093963757 9 8
-3.9105413 -3.7044845 0.28230017 16 9
-3.8973122 -3.6906621 0.46959516 16 10
-3.9146004 -3.7044427 0.66175061 18 11
-3.958509 -3.7446847 -0.66906273 1 4
-3.9053383 -3.6930969 0.85131645 19 12
-3.8839629 -3.672883 -0.46767771 1 5
-3.9019871 -3.6886358 1.0437253 15 13
-3.9063547 -3.691474 -0.28167215 6 6
-3.8999155 -3.6841028 1.2385805 17 14
-3.9007783 -3.6836278 -0.093649611 9 7
-3.9025126 -3.6839776 1.4379987 14 15
-3.8963673 -3.6679022 0.093405277 9 8
-3.9059923 -3.6743901 0.28104413 16 9
-3.8971076 -3.664752 0.46802634 18 10
-3.9101481 -3.6744425 0.6588257 21 11
-3.9066865 -3.6686227 0.84881347 19 12
-3.8764274 -3.6402073 -0.46523735 3 5
-3.9033885 -3.6642437 1.0406723 13 13
-3.9119337 -3.6709831 -0.28114879 6 6
-3.89854 -3.6571336 1.2340814 17 14
-3.9034026 -3.6604142 -0.093405277 9 7
-3.8815219 -3.6386247 1.4255754 14 15
-3.8843131 -3.6310639 0.092811897 8 8
-3.9129558 -3.6552806 0.28062543 16 9
-3.8880332 -3.6307287 0.46541166 18 10
-3.898277 -3.6377485 0.65468216 23 11
-3.9050219 -3.6414912 0.84568483 19 12
-3.8759966 -3.6144247 -0.46366853 3 5
-3.8874328 -3.6238229 1.0330399 15 13
-3.9086518 -3.6423266 -0.27999741 6 6
-3.8941715 -3.627563 1.2286826 16 14
-3.9029839 -3.6345022 -0.093091138 10 7
-3.8857162 -3.6171548 1.4224695 16 15
-3.8852398 -3.6065993 0.092532657 8 8
-3.8949416 -3.613075 0.2784273 15 9
-3.8948405 -3.6117148 0.46471441 19 10
-3.8949349 -3.6092768 0.65200108 25 11
-3.9061139 -3.6171021 0.84318191 19 12
-3.8812797 -3.5941057 -0.46279699 3 5
-3.8942957 -3.6048961 1.0315135 13 13
-3.8964217 -3.6055999 -0.27821797 4 6
-3.8925049 -3.6007149 1.2241837 16 14
-3.9068379 -3.61271 -0.092881702 10 7
-3.8954818 -3.6009459 1.4214342 14 15
-3.8919241 -3.5875936 0.092393041 8 8
-3.8957782 -3.5886316 0.27758995 15 9
-3.8942325 -3.5859516 0.46314558 17 10
-3.8958242 -3.5849054 0.65005112 30 11
-3.8983588 -3.5847256 0.83880174 19 12
-3.8879352 -3.5751407 -0.46209973 3 5
-3.8895121 -3.5753365 1.0269341 13 13
-3.9060426 -3.5892742 -0.27800864 4 6
-3.8906977 -3.5739233 1.2196846 16 14
-3.9061701 -3.5868771 -0.092567563 9 7
-3.89095 -3.5716498 1.4152226 14 15
-3.8896735 -3.5604844 0.092043988 8 8
-3.893544 -3.5615304 0.27654323 15 9
-3.8876112 -3.5548575 0.46087953 15 10
-3.8980558 -3.5619109 0.64834493 27 11
-3.8933437 -3.5551119 0.8350473 20 12
-3.8797932 -3.5427387 -0.45965937 3 5
-3.8932686 -3.5537963 1.0246444 13 13
-3.8978918 -3.556771 -0.27654323 4 6
-3.884433 -3.5432477 1.213836 14 14
-3.8950248 -3.5516624 -0.09200909 9 7
-3.8805492 -3.5372243 1.4069405 14 15
-3.8843215 -3.5307446 0.091625139 8 8
-3.8890722 -3.5338252 0.27539182 13 9
-3.8852463 -3.5278721 0.45913643 15 10
-3.9016449 -3.5402787 0.64688253 24 11
-3.8948696 -3.5328915 0.83285719 20 12
-3.8832812 -3.521143 -0.45861349 4 5
-3.8838296 -3.5204072 1.0189201 11 13
-3.8999236 -3.5337555 -0.27581054 3 6
-3.8881123 -3.5218165 1.2111365 14 14
-3.8889959 -3.5226166 -0.091590226 9 7
-3.8736413 -3.5074797 1.4002111 14 15
-3.8811665 -3.5044427 0.091276079 8 8
-3.8939707 -3.5135376 0.27486849 13 9
-3.885699 -3.5036159 0.45774195 15 10
-3.9027741 -3.5153091 0.8319186 9 12
-3.8896253 -3.5022347 -0.45791626 4 5
-3.8779752 -3.4917448 1.0143408 12 13
-3.8908377 -3.5020969 -0.2743451 3 6
-3.8968725 -3.5062964 1.2102367 14 14
-3.8953207 -3.5036716 -0.091450609 7 7
-3.8772418 -3.4861867 1.3971052 13 15
-3.8829527 -3.4815297 0.091031753 6 8
-3.8853867 -3.4812646 0.27340308 9 9
-3.8883913 -3.4827352 0.45669609 15 10
-3.8780622 -3.4673882 -0.45512727 4 5
-3.8784316 -3.4677184 1.0112877 11 13
-3.8762341 -3.4645364 -0.27246103 3 6
-3.8901956 -3.4757938 1.2043879 13 14
-3.9075272 -3.4900532 -0.091450609 6 7
-3.8836231 -3.4674847 1.3950348 13 15
-3.8771601 -3.4519978 0.090612896 5 8
-3.888561 -3.4597161 0.27277502 5 9
-3.9026201 -3.4697831 0.45687038 14 10
-3.8812027 -3.4458928 -0.45408139 4 5
-3.8940523 -3.4560862 1.012051 11 13
-3.8769538 -3.4397016 -0.27162364 3 6
-3.8795817 -3.4408233 1.1971895 11 14
-3.8957491 -3.455162 -0.090892136 3 7
-3.8841393 -3.4436545 1.3908936 13 15
-3.8882875 -3.4364395 0.09057799 4 8
-3.8841491 -3.4315746 0.27162364 3 9
-3.8713934 -3.4178984 0.45181534 12 10
-3.8851979 -3.4276736 0.63615805 9 11
-3.8752725 -3.4165139 -0.45198968 4 5
-3.8839989 -3.4230008 1.0063267 10 13
-3.8889372 -3.4261472 -0.27162364 1 6
-3.8690381 -3.4086161 1.190441 9 14
-3.8732693 -3.4111452 -0.090089321 3 7
-3.8787365 -3.4147568 1.3846819 13 15
-3.8786232 -3.4050562 0.090089321 2 8
-3.9045148 -3.42658 0.27225167 1 9
-3.8767149 -3.3997869 0.45111811 12 10
-3.8831065 -3.4029951 0.63396436 12 11
-3.8611004 -3.3813298 -0.44902641 3 5
-3.8776028 -3.3945844 1.0017474 10 13
-3.8972721 -3.4106019 -0.27141431 1 6
-3.8788538 -3.3944836 1.1899911 4 14
-3.9011157 -3.4127653 -0.090473272 1 7
-3.8696797 -3.3840711 1.377435 13 15
-3.8778379 -3.3816602 0.089810088 2 8
-3.9044061 -3.4024324 0.27141431 1 9
-3.8654337 -3.3672824 0.44850346 8 10
-3.8838885 -3.3809769 0.63225818 11 11
-3.8632729 -3.360661 -0.44798052 4 5
-3.8606899 -3.3572307 0.99449658 10 13
-3.881428 -3.3740733 -0.26953021 1 6
-3.8877363 -3.3783674 1.1890913 4 14
-3.8918707 -3.3807666 -0.089984603 1 7
-3.8697999 -3.3604095 1.3732939 13 15
-3.8820593 -3.3615596 0.089635558 1 8
-3.8951137 -3.370487 0.2699489 1 9
-3.857574 -3.3368247 0.44623742 3 10
-3.8746428 -3.3492239 0.62884587 12 11
-3.8689489 -3.3419452 -0.44728327 1 5
-3.8619845 -3.3347511 0.99182522 7 13
-3.8780622 -3.3474543 -0.26848349 1 6
-3.8626201 -3.3329489 1.1778437 3 14
-3.9521031 -3.4089568 -0.091101564 1 7
-3.8727269 -3.3393121 1.370188 13 15
-3.8918693 -3.3428116 0.44885206 1 10
-3.8682334 -3.3201647 0.62592101 5 11
-3.9227846 -3.3634214 1.0044186 1 13
-3.9230664 -3.3612859 1.1926905 1 14
-3.897567 -3.3370814 1.3748468 1 15
-2.8830836 -2.4563007 -0.46505347 3 4
-2.9052796 -2.4577603 -0.4672471 2 4
-3.1257465 -2.6414609 -0.21447276 1 6
-2.9108014 -2.4450505 -0.46675962 1 4
-3.7809618 -3.1748533 -0.43194386 3 5
-3.801403 -3.1908884 0.96473032 3 13
-3.8236759 -3.2073083 1.1521993 1 14
-3.8079336 -3.1918399 1.3313652 13 15
-3.8140268 -3.1788552 0.96511191 5 13
-3.8168786 -3.1789763 1.1468004 3 14
-3.8220222 -3.1809998 1.3324004 14 15
-3.7711949 -3.1242404 0.60130334 0 11
-2.8880486 -2.3917506 -0.4604224 1 4
-3.8084629 -3.1517539 0.96091413 3 13
-3.8129354 -3.1532135 1.1423014 3 14
-3.8211889 -3.1577954 1.3282595 14 15
-3.8380282 -3.1627018 0.086808272 2 8
-3.8159528 -3.1422751 0.25906301 1 9
-3.825655 -3.1491444 0.43351269 1 10
-3.8142717 -3.1375411 0.60642189 9 11
-2.9209125 -2.4018276 -0.46432224 1 4
-3.817924 -3.1371951 0.96053255 2 13
-3.8118706 -3.1299913 1.1387023 4 14
-3.8301816 -3.1439095 -0.086494125 1 7
-3.8232276 -3.1370847 1.3251536 11 15
-3.8103528 -3.1176276 0.085935652 12 8
-3.8207135 -3.1238787 0.25864434 3 9
-3.8119419 -3.1155972 0.4307237 1 10
-3.8205884 -3.1204402 0.60569072 9 11
-3.8090763 -3.1077147 0.95557153 2 13
-3.1713705 -2.5865061 -0.21447276 1 6
-3.7986062 -3.0969648 1.1315038 6 14
-3.8085806 -3.1039906 -0.085761122 16 7
-3.8251693 -3.1163979 1.3220477 9 15
-3.8103483 -3.0954819 0.085691318 16 8
-3.8083348 -3.0916405 0.25707424 8 9
-3.8011348 -3.0846951 0.4282833 1 10
-3.8129554 -3.0920808 0.6027658 9 11
-3.8337352 -3.1067147 0.78154671 2 12
-3.7985432 -3.0770981 0.95022881 2 13
-3.0888019 -2.5012631 -0.20829713 8 6
-3.8230259 -3.0947216 1.135553 9 14
-3.805403 -3.079355 -0.085446984 18 7
-3.8240085 -3.0933065 1.3179066 6 15
-3.8164608 -3.0783961 0.0855866 23 8
-3.8019981 -3.0645418 0.25592285 12 9
-3.7937961 -3.0557451 0.4261916 1 10
-3.8082635 -3.0663025 0.60032845 9 11
-3.8230097 -3.0759771 0.77716655 8 12
-3.7868457 -3.0447025 0.94450456 2 13
-3.0278945 -2.4336202 -0.20358689 5 6
-3.8100374 -3.0611587 1.1283545 11 14
-3.8036575 -3.0560329 -0.085167743 21 7
-3.8257453 -3.0726821 1.3148009 4 15
-3.8167899 -3.05564 0.085342273 28 8
-3.8079948 -3.0475068 0.25560883 17 9
-3.7935464 -3.0337739 0.4249714 3 10
-3.811723 -3.0461278 0.59910977 9 11
-3.8152027 -3.0478191 0.77341211 12 12
-2.964292 -2.3672109 -0.33188906 1 5
-3.8066566 -3.0388143 0.94679433 3 13
-3.030127 -2.4180522 -0.2031682 6 6
-3.8130815 -3.0417647 1.126105 13 14
-3.8002324 -3.0315146 -0.084853604 24 7
-3.8273852 -3.0520821 1.311695 3 15
-3.8222063 -3.0392323 0.085237555 41 8
-3.809227 -3.0267406 0.2549808 24 9
-3.8041141 -3.0205123 0.4249714 10 10
-3.8155844 -3.0285344 0.59813482 8 11
-3.8026042 -3.0160689 0.76871902 13 12
-2.9725373 -2.3568487 -0.33188906 1 5
-3.8090205 -3.0200751 0.94488621 7 13
-3.0475197 -2.4154356 -0.20379624 6 6
-3.8063462 -3.0157914 1.1211561 16 14
-3.7966831 -3.007057 -0.084539458 33 7
-3.8198395 -3.0243144 1.3054833 3 15
-3.8108187 -3.0085242 0.084748887 48 8
-3.8129718 -3.0091426 0.25456211 36 9
-3.7953358 -2.9930768 0.42287967 14 10
-3.8094819 -3.0009975 0.76809335 15 12
-3.8041127 -2.9946182 0.94107002 8 13
-3.0355289 -2.3887255 -0.20243551 8 6
-3.8061283 -2.9940522 1.1180067 19 14
-3.8034904 -2.991977 -0.084469646 30 7
-3.8085883 -2.9949117 1.2982364 1 15
-3.8018911 -2.9810641 0.08433003 49 8
-3.8124468 -2.9871926 0.25382942 43 9
-3.801055 -2.9761243 0.42235672 15 10
-3.809042 -2.9791627 0.76590323 20 12
-3.8062892 -2.9759405 0.93916196 10 13
-3.0198283 -2.3601983 -0.20086543 12 6
-3.8114295 -2.9778149 1.116657 19 14
-3.8107595 -2.9762208 -0.084399842 28 7
-3.8829741 -3.0315297 1.3199772 1 15
-3.8075397 -2.9640892 0.084225312 50 8
-3.8086631 -2.9628294 0.25288737 49 9
-3.8014653 -2.9561653 0.42131084 19 10
-3.787003 -2.9427984 0.58887273 6 11
-3.8116167 -2.9597917 0.76433885 24 12
-3.8125186 -2.9583583 0.93801707 11 13
-3.03635 -2.3552341 -0.20138879 11 6
-3.8094826 -2.9549372 1.1130579 19 14
-3.8053219 -2.9506478 -0.084050797 24 7
-3.8477266 -2.9824517 1.3044481 1 15
-3.8057191 -2.9403334 0.083946079 52 8
-3.7957828 -2.9305413 0.25131726 50 9
-3.8028114 -2.9349086 0.42026496 21 10
-3.7993364 -2.93011 0.58911645 8 11
-3.8114865 -2.9373605 0.7621488 27 12
-3.8031144 -2.9287932 0.93305606 12 13
-3.0592053 -2.3550544 -0.20233083 8 6
-3.7955806 -2.9219348 1.1058594 24 14
-3.8050179 -2.9281425 -0.083806455 16 7
-3.828007 -2.9447713 1.2940953 1 15
-3.8132963 -2.9239314 0.083876267 50 8
-3.7980638 -2.9111989 0.25079393 56 9
-3.7993083 -2.9100468 0.41869619 21 10
-3.8037441 -2.9113398 0.5881415 9 11
-3.8075976 -2.9132342 0.75933295 28 12
-3.8164337 -2.9178846 0.93381923 13 13
-3.0880368 -2.3601279 -0.20369156 4 6
-3.8026602 -2.9063013 1.1049596 22 14
-3.7961473 -2.9002757 -0.083387598 15 7
-3.8106277 -2.9102855 1.2847778 4 15
-3.7991071 -2.8930979 0.083352692 46 8
-3.7997508 -2.892539 0.25027055 56 9
-3.789907 -2.8829579 0.41660443 21 10
-3.800735 -2.8890998 0.58619159 9 11
-3.8078005 -2.8934205 0.75745571 27 12
-3.1795008 -2.4151225 -0.34932023 1 5
-3.8057623 -2.8897784 0.92885822 15 13
-3.1085734 -2.359535 -0.20452894 4 6
-3.8014114 -2.8854275 1.1018102 26 14
-3.8025582 -2.8852534 -0.083317786 12 7
-3.8033266 -2.8847909 1.2790838 13 15
-3.7959211 -2.8708336 0.083073452 46 8
-3.8050444 -2.8756449 0.24995655 52 9
-3.7946775 -2.8667712 0.41608149 26 10
-3.7976201 -2.8669114 0.58424169 11 11
-3.8099921 -2.8741639 0.75589144 24 12
-3.1401887 -2.368021 -0.34409088 1 5
-3.7918119 -2.8594112 0.92313397 16 13
-3.1275442 -2.35763 -0.20526163 1 6
-3.8005655 -2.8639321 1.0986609 22 14
-3.8062177 -2.8671498 -0.08317817 10 7
-3.8087444 -2.86801 1.2775309 14 15
-3.7963243 -2.8503618 0.082864024 42 8
-3.7958875 -2.8479629 0.2487005 52 9
-3.8019719 -2.8504529 0.41573292 26 10
-3.7917194 -2.8417325 0.58180428 13 11
-3.8136768 -2.8561103 0.75463998 24 12
-3.1292961 -2.3427167 -0.34199914 1 5
-3.799123 -2.8431416 0.92237073 16 13
-3.1617527 -2.3652935 -0.20693639 1 6
-3.7969909 -2.839479 1.0946118 24 14
-3.8113983 -2.8502533 -0.083073452 9 7
-3.795522 -2.8373477 1.2697662 19 15
-3.803539 -2.834039 0.082794219 37 8
-3.7897882 -2.8227646 0.24765378 54 9
-3.7975142 -2.8264575 0.4141641 24 10
-3.8005171 -2.8266315 0.58156055 10 11
-3.8061852 -2.8298159 0.75119835 16 12
-3.2046165 -2.3816957 -0.34932023 1 5
-3.7964168 -2.8204961 0.91931778 10 13
-3.1699901 -2.3542426 -0.20693639 1 6
-3.795927 -2.8180766 1.0914625 9 14
-3.80848 -2.8273959 -0.082794219 3 7
-3.7991982 -2.8194766 1.2676958 16 15
-3.8557734 -2.84584 0.75902009 1 12
-1.5615709 -1.144153 0.30661157 1 12
-1.5838635 -1.160062 0.38161799 4 13
-1.5808842 -1.1574565 -0.10268316 1 6
-1.5568305 -1.1394275 0.4454031 1 14
-1.5590091 -1.1406043 -0.03371805 3 7
-1.5624443 -1.1426996 0.51867342 1 15
-1.546257 -1.1275501 0.033403907 3 8
-1.580278 -1.1515141 0.10247381 0 9
-1.5927299 -1.160162 0.17239405 0 10
-1.5808803 -1.1506861 0.24008264 1 11
-1.5591652 -1.1340474 0.30536011 2 12
-1.5725935 -1.1438142 -0.17012802 0 5
-1.572024 -1.1429813 0.37780184 6 13
-1.5574495 -1.131969 -0.10090373 10 6
-1.576564 -1.1454406 0.44990209 6 14
-1.5484189 -1.1245797 -0.033403907 11 7
-1.557044 -1.1304284 0.51556754 1 15
-1.5550429 -1.1256639 0.033508621 7 8
-1.5551591 -1.1249205 0.10058971 1 9
-1.5644795 -1.1312464 0.16890782 0 10
-1.5446616 -1.1160957 0.23398916 2 11
-1.5711218 -1.1343801 0.30692446 4 12
-1.5539614 -1.12199 -0.16768765 0 5
-1.5648608 -1.129444 0.3751305 7 13
-1.5500537 -1.118345 -0.10017103 11 6
-1.5694886 -1.1319512 0.44675279 7 14
-1.5426024 -1.112151 -0.033194479 11 7
-1.5703841 -1.1317635 0.51867342 6 15
-1.5475956 -1.1120602 0.033264287 8 8
-1.5412306 -1.106671 0.099438325 3 9
-1.5376655 -1.1037043 0.1655959 1 10
-1.5566136 -1.1164819 0.23520786 6 11
-1.5750722 -1.1288888 0.30692446 7 12
-1.5708237 -1.1258439 -0.16908213 0 5
-1.56241 -1.1194011 0.37360403 11 13
-1.5458288 -1.1071131 -0.099647671 11 6
-1.5560006 -1.1139873 0.44180387 11 14
-1.5383447 -1.1009403 -0.033019952 15 7
-1.56804 -1.121779 0.51660281 5 15
-1.5579798 -1.1112962 0.033403907 11 8
-1.5434579 -1.1001251 0.099333659 5 9
-1.5512446 -1.105267 0.16664177 2 10
-1.5669698 -1.1156468 0.23618281 6 11
-1.5548592 -1.1062068 0.3022314 8 12
-1.5650034 -1.1134238 -0.16803627 0 5
-1.566308 -1.1139404 0.37360403 17 13
-1.5529398 -1.104025 -0.099857017 11 6
-1.5551143 -1.1051625 0.44045416 15 14
-1.5307667 -1.0874575 -0.032775622 21 7
-1.5561953 -1.1051134 0.51142645 6 15
-1.5406332 -1.0908291 0.032950144 14 8
-1.5521798 -1.0981914 0.099647671 6 9
-1.5583466 -1.1021463 0.1669904 6 10
-1.5708545 -1.1101704 0.23618281 7 11
-1.5603248 -1.1019121 0.3025443 9 12
-1.5688804 -1.1079541 -0.16803627 0 5
-1.5653753 -1.1050695 0.3724592 26 13
-1.556784 -1.0985975 -0.099857017 12 6
-1.5462234 -1.0907408 0.43685496 16 14
-1.5394559 -1.0855646 -0.032880332 30 7
-1.5505695 -1.0929961 0.50832063 8 15
-1.5346149 -1.0785459 0.032740716 20 8
-1.5478317 -1.0870272 0.099124312 6 9
-1.5458775 -1.0852525 0.16524729 6 10
-1.5568441 -1.09214 0.23350169 7 11
-1.5544564 -1.0896555 0.30066708 10 12
-1.5988419 -1.1207691 -0.17082524 0 5
-1.5483217 -1.0849522 0.36749816 25 13
-1.5507941 -1.0862818 -0.099228986 11 6
-1.5627919 -1.0942787 0.44045416 23 14
-1.543236 -1.0801842 -0.032880332 30 7
-1.5448785 -1.0809315 0.50521481 11 15
-1.5482109 -1.0800472 0.032950144 29 8
-1.5450625 -1.0770493 0.09870562 11 9
-1.5561948 -1.0844059 0.16594453 8 10
-1.5476142 -1.0776244 0.23155177 7 11
-1.5631151 -1.0876074 0.30160567 11 12
-1.5962027 -1.1106296 -0.17012802 0 5
-1.547264 -1.0761782 0.36635327 31 13
-1.5430977 -1.0728803 -0.098496281 10 6
-1.5473998 -1.0754708 0.43505535 27 14
-1.5469968 -1.0747911 -0.032880332 31 7
-1.5375348 -1.0678189 0.50159132 14 15
-1.5536158 -1.0757743 0.03298505 37 8
-1.5438855 -1.0682402 0.098391607 12 9
-1.5550551 -1.0755669 0.16542161 11 10
-1.5529994 -1.0733442 0.2317955 7 11
-1.5473968 -1.0686741 0.29785126 14 12
-1.590233 -1.098258 -0.16908213 0 5
-1.54778 -1.0685399 0.36559007 31 13
-1.5534087 -1.0720251 -0.098914966 8 6
-1.5431238 -1.0645303 0.43280584 34 14
-1.5408622 -1.0625728 -0.032670904 30 7
-1.5348905 -1.0580595 0.49952078 22 15
-1.5557133 -1.0692123 0.032950144 41 8
-1.5476053 -1.0628442 0.098391607 20 9
-1.5489444 -1.0633664 0.16437572 12 10
-1.5583739 -1.0690393 0.23203924 8 11
-1.5446005 -1.0587987 0.29659978 18 12
-1.5498812 -1.0620204 0.36520842 35 13
-1.5521977 -1.0632104 -0.098600946 7 6
-1.5484383 -1.0602382 0.43325573 38 14
-1.544562 -1.0571877 -0.032670904 29 7
-1.5385746 -1.0526953 0.49952078 31 15
-1.5546653 -1.0601233 0.03284543 46 8
-1.5513055 -1.0574359 0.098391607 26 9
-1.5511848 -1.0565605 0.16420141 21 10
-1.5639224 -1.0644377 0.232283 8 11
-1.5531868 -1.0567337 0.2975384 18 12
-1.5488923 -1.0530217 0.36406359 39 13
-1.5610402 -1.0608816 -0.098914966 6 6
-1.5505182 -1.053731 0.43280584 42 14
-1.551551 -1.0540369 -0.032740716 26 7
-1.5294542 -1.0386361 0.49537966 34 15
-1.5416136 -1.0437509 0.032496382 46 8
-1.5614198 -1.0567634 0.0988103 30 9
-1.5398263 -1.0413655 0.16263261 17 10
-1.5493513 -1.0470192 0.22960186 8 11
-1.5501348 -1.0471545 0.29628691 24 12
-1.5442396 -1.0423875 0.3621555 42 13
-1.5463377 -1.0434109 -0.097763576 5 6
-1.5540038 -1.0485837 0.43280584 39 14
-1.5500643 -1.0455314 -0.032636002 18 7
-1.5328901 -1.0335585 0.49537966 44 15
-1.5450664 -1.0386329 0.032496382 46 8
-1.5468618 -1.0390562 0.097658902 30 9
-1.5531958 -1.0429175 0.16367848 20 10
-1.5429245 -1.0352396 0.22813943 9 11
-1.5554216 -1.0428369 0.29659978 24 12
-1.5379027 -1.0307027 0.35986578 44 13
-1.5398333 -1.0316074 -0.097135544 5 6
-1.5414629 -1.0323088 0.42830679 44 14
-1.5603513 -1.0445642 -0.032775622 17 7
-1.534883 -1.0271269 0.49486202 45 15
-1.5470188 -1.0321238 0.032461476 44 8
-1.5438321 -1.0292187 0.097240217 34 9
-1.5485367 -1.0319653 0.16280691 19 10
-1.5399196 -1.0254463 0.22716448 10 11
-1.5541184 -1.0341185 0.29566118 26 12
-1.5414912 -1.0253282 0.35986578 44 13
-1.5550671 -1.0339674 -0.097868249 4 6
-1.540188 -1.0236861 0.4269571 45 14
-1.5523288 -1.031365 -0.032531288 12 7
-1.53685 -1.0206938 0.49434438 47 15
-1.5556141 -1.0300294 0.03256619 39 8
-1.5407524 -1.0194155 0.096821532 30 9
-1.5521297 -1.0265532 0.16280691 21 10
-1.550114 -1.024443 0.22813943 10 11
-1.5494767 -1.0232444 0.29409683 27 12
-1.5401453 -1.0166967 0.35872093 45 13
-1.5386627 -1.015332 -0.096612185 3 6
-1.5372452 -1.0140114 0.42515749 45 14
-1.5492418 -1.0215368 -0.032391667 9 7
-1.5323384 -1.0100074 0.4917562 51 15
-1.5475023 -1.0169054 0.032321859 34 8
-1.5476404 -1.0162234 0.097030871 30 9
-1.5407131 -1.0112895 0.16123812 22 10
-1.5536805 -1.0190258 0.22813943 11 11
-1.5398216 -1.0091676 0.29159388 25 12
-1.5387584 -1.0080863 0.35757607 47 13
-1.5355141 -1.0055779 -0.096193492 3 6
-1.5391449 -1.0075719 0.42470759 48 14
-1.5461049 -1.0117428 -0.032252047 8 7
-1.5277714 -0.99936485 0.48916802 53 15
-1.5393174 -1.0038514 0.032077521 33 8
-1.5545253 -1.0129955 0.097240217 30 9
-1.5492418 -1.0091679 0.16176106 21 10
-1.5489098 -1.0081813 0.22692074 14 11
-1.5449908 -1.0048633 0.29190674 26 12
-1.5307462 -0.99521798 0.35490477 53 13
-1.5323162 -0.99585831 -0.095774807 4 6
-1.5426522 -1.0021935 0.42470759 48 14
-1.5580126 -1.0117853 -0.03242657 6 7
-1.5215282 -0.98771447 0.4860622 53 15
-1.5444907 -0.99955851 0.032112427 28 8
-1.5479888 -1.0010558 0.096612185 25 9
-1.5494086 -1.0015906 0.16141243 23 10
-1.5374123 -0.9930746 0.22472709 13 11
-1.5484892 -0.9994638 0.29190674 29 12
-1.5342109 -0.98986858 0.35490477 54 13
-1.5357829 -0.99050379 -0.095774807 4 6
-1.5379522 -0.99152237 0.42245808 50 14
-1.5581733 -1.0041741 -0.032356761 6 7
-1.5363348 -0.98972112 0.48968565 60 15
-1.5361925 -0.98659682 0.031868093 23 8
-1.5428964 -0.99052191 0.096088827 30 9
-1.5512184 -0.9951002 0.16123812 22 10
-1.5325131 -0.982346 0.2235084 16 11
-1.5501317 -0.99325788 0.29159388 28 12
-1.5343498 -0.98239028 0.3541415 57 13
-1.53082 -0.97975361 -0.095251448 5 6
-1.523347 -0.97459549 0.41750914 58 14
-1.5530725 -0.99361295 -0.032182239 5 7
-1.5265883 -0.97629434 0.48554453 59 15
-1.5428281 -0.98364711 0.031937905 17 8
-1.5379221 -0.97976458 0.095565468 25 9
-1.5395561 -0.98004967 0.15966932 24 10
-1.5491605 -0.98578435 0.22545831 16 11
-1.5419211 -0.98042113 0.2894038 26 12
-1.5425699 -0.98045605 0.35528636 58 13
-1.5306891 -0.97252965 -0.095042109 6 6
-1.5298605 -0.97162801 0.41840896 59 14
-1.539649 -0.97746825 -0.03183319 5 7
-1.5234625 -0.96681899 0.48347399 62 15
-1.5344228 -0.97077221 0.03169357 13 8
-1.5497738 -0.97972643 0.096088827 25 9
-1.53606 -0.9706822 0.15897207 23 10
-1.5425211 -0.97401142 0.22399586 20 11
-1.5369805 -0.96976262 0.28783944 24 12
-1.534359 -0.96773416 0.35261503 57 13
-1.5408329 -0.97144091 -0.095460795 6 6
-1.5332427 -0.96628225 0.41840896 60 14
-1.5498195 -0.9763515 -0.031972811 4 7
-1.5104811 -0.95120049 0.47829759 60 15
-1.5411893 -0.96753651 0.031763379 12 8
-1.5582598 -0.97749507 0.096402846 24 9
-1.5345433 -0.96187085 0.15844914 25 10
-1.539183 -0.96440512 0.22302091 19 11
-1.5403563 -0.96439159 0.28783944 25 12
-1.5229161 -0.9527328 0.34918046 59 13
-1.5393025 -0.96261042 -0.095146775 6 6
-1.533469 -0.95859015 0.41750914 59 14
-1.5396528 -0.96245569 -0.03169357 4 7
-1.5170687 -0.94796991 0.47933289 62 15
-1.5498177 -0.96505225 0.031868093 10 8
-1.5430107 -0.96044004 0.095251448 23 9
-1.5463506 -0.96176964 0.1593207 27 10
-1.5309054 -0.95142245 0.22131474 19 11
-1.5293853 -0.95010775 -0.22107102 0 4
-1.5437133 -0.95900881 0.28783944 24 12
-1.5262325 -0.94741094 0.34918046 59 13
-1.5290766 -0.94880676 -0.094309397 6 6
-1.5285257 -0.9480955 0.41525963 63 14
-1.5498005 -0.96129161 -0.03183319 4 7
-1.5220103 -0.94368654 0.47985053 67 15
-1.5428038 -0.95359892 0.031658668 8 8
-1.5412563 -0.95189911 0.094937436 18 9
-1.5480027 -0.95532006 0.15914638 24 10
-1.530673 -0.94425607 0.22082727 19 11
-1.5325276 -0.94503081 -0.22107102 1 4
-1.5369619 -0.94739562 0.28596222 24 12
-1.5243516 -0.93925488 0.34803563 60 13
-1.5254123 -0.93954128 -0.093890712 6 6
-1.5250232 -0.9389351 0.41346005 65 14
-1.5565526 -0.95797217 -0.031902999 4 7
-1.5252951 -0.9383679 0.47985053 67 15
-1.554646 -0.95343524 0.03183319 7 8
-1.5411638 -0.94442618 0.09472809 18 9
-1.5273767 -0.93561131 0.15670602 24 10
-1.535653 -0.93994355 0.22107102 19 11
-1.5267782 -0.93377906 0.28345928 21 12
-1.5359961 -0.93904841 0.34994373 58 13
-1.533795 -0.93733561 -0.094204731 7 6
-1.5249658 -0.93157387 0.41256022 64 14
-1.5291672 -0.93377399 -0.031274714 4 7
-1.5153697 -0.92498612 0.47570941 67 15
-1.5528399 -0.94488418 0.031728476 6 8
-1.5461574 -0.94007868 0.094832763 14 9
-1.5204177 -0.92406529 0.15566015 19 10
-1.5406212 -0.93560809 0.22131474 19 11
-1.533406 -0.93049347 0.28408504 23 12
-1.5308714 -0.92859048 0.34803563 53 13
-1.5353501 -0.93094003 -0.094100058 6 6
-1.5248753 -0.92422479 0.41166043 62 14
-1.542679 -0.93464798 -0.031484142 5 7
-1.5136322 -0.91668826 0.47415653 67 15
-1.5236021 -0.91982174 0.031065283 3 8
-1.5391684 -0.92848587 0.094204731 11 9
-1.5253403 -0.91978085 0.15583447 19 10
-1.5353761 -0.92510223 0.22009605 19 11
-1.5366446 -0.92513549 0.28408504 23 12
-1.5172822 -0.91311777 0.34421945 53 13
-1.5300331 -0.92042714 -0.093576699 7 6
-1.5297619 -0.91990101 0.41211033 59 14
-1.5287931 -0.91895509 -0.031135093 5 7
-1.5135111 -0.90940905 0.47312123 60 15
-1.5628296 -0.93607539 0.031798285 2 8
-1.5424001 -0.9231075 0.094204731 11 9
-1.5336709 -0.91751975 0.15635739 19 10
-1.5232612 -0.91057032 0.21790241 22 11
-1.5330811 -0.91571414 0.28283355 16 12
-1.513718 -0.9037897 0.34269297 53 13
-1.5315216 -0.91405749 -0.093472026 6 6
-1.5229224 -0.90856498 0.40941092 61 14
-1.5388618 -0.91770953 -0.031274714 5 7
-1.5100384 -0.90016389 0.47105068 59 15
-1.5609303 -0.92754972 0.03169357 1 8
-1.5301569 -0.90854067 0.09326268 9 9
-1.524871 -0.90504223 0.15513723 15 10
-1.5315527 -0.9082852 0.21863361 20 11
-1.5311699 -0.907336 0.28189492 15 12
-1.52362 -0.90250289 0.34421945 46 13
-1.5312655 -0.90667063 -0.09326268 6 6
-1.5210537 -0.90026569 0.40806124 55 14
-1.5386136 -0.91029626 -0.031204903 5 7
-1.5164973 -0.89685422 0.47208595 58 15
-1.5607133 -0.92006427 0.031623758 1 8
-1.5436443 -0.90927601 0.093890712 8 9
-1.5263039 -0.89870298 0.15496291 15 10
-1.5381358 -0.9049468 0.2191211 17 11
-1.5224073 -0.89497793 0.27970487 14 12
-1.5284537 -0.89817357 0.34460106 45 13
-1.5378654 -0.90334314 -0.093472026 6 6
-1.5275478 -0.89692408 0.40896103 55 14
-1.5176375 -0.89074898 -0.030716237 5 7
-1.516286 -0.88959992 0.47105068 59 15
-1.5535581 -0.90855402 0.03141433 1 8
-1.5588799 -0.9109357 0.094623417 7 9
-1.5191092 -0.88734055 0.15391703 12 10
-1.5395709 -0.89857149 0.21887736 18 11
-1.5221094 -0.88766795 0.27907911 12 12
-1.5230992 -0.88788903 0.34269297 42 13
-1.5410094 -0.89796948 -0.093472026 5 6
-1.5256177 -0.88864386 0.40761131 51 14
-1.5276499 -0.88947064 -0.030855855 5 7
-1.511034 -0.87944251 0.4684625 55 15
-1.5670983 -0.90914637 0.031623758 1 8
-1.5655057 -0.90749234 0.094832763 6 9
-1.5170259 -0.87903535 0.1533941 10 10
-1.5272365 -0.88424045 0.21668372 17 11
-1.5388775 -0.89026278 0.28158206 12 12
-1.5142921 -0.8756876 0.34002164 41 13
-1.5493219 -0.89558345 -0.093786038 2 6
-1.5320851 -0.88526303 0.40851113 45 14
-1.5116975 -0.87313133 -0.0304719 6 7
-1.5140946 -0.87416303 0.4684625 56 15
-1.545998 -0.88970631 0.031135093 1 8
-1.5478871 -0.89007479 0.093576699 6 9
-1.5235398 -0.87572026 0.15374273 8 10
-1.5165427 -0.87099481 0.21473379 10 11
-1.5385491 -0.88291967 0.28095633 10 12
-1.5190427 -0.87137282 0.34040326 41 13
-1.536845 -0.88122833 -0.092843994 1 6
-1.5267121 -0.87506461 0.40626162 44 14
-1.5199417 -0.87083113 -0.030576617 5 7
-1.5121076 -0.86599225 0.46690959 50 15
-1.5734071 -0.89818382 0.031623758 1 8
-1.5527196 -0.8856554 0.093681373 5 9
-1.5248563 -0.86941028 0.15356842 7 10
-1.5161245 -0.86373013 0.21424633 10 11
-1.5296043 -0.8707031 0.27876624 9 12
-1.5152498 -0.86218143 0.33887681 38 13
-1.5399115 -0.87585866 -0.092843994 1 6
-1.521287 -0.86491424 0.40401211 42 14
-1.5247107 -0.86650819 -0.030611521 6 7
-1.5235199 -0.86547971 0.46949777 53 15
-1.5727416 -0.89126456 0.03155395 1 8
-1.5537562 -0.87978923 0.093576699 5 9
-1.5258464 -0.86363405 0.1533941 6 10
-1.5378371 -0.86971235 0.21692745 9 11
-1.5254532 -0.86200607 0.27751476 9 12
-1.5384635 -0.86900377 0.34345621 38 13
-1.5496125 -0.87494409 -0.09326268 0 6
-1.5222995 -0.85917276 0.40356219 43 14
-1.5030422 -0.84795827 -0.030122854 6 7
-1.5094041 -0.85119969 0.46432137 47 15
-1.5618976 -0.87793052 0.031274714 1 8
-1.5481107 -0.86947006 0.093053341 2 9
-1.514953 -0.85049981 0.15199961 6 10
-1.5460577 -0.86725247 0.21765867 7 11
-1.5215602 -0.85281265 0.2762633 9 12
-1.5209345 -0.85211325 0.33887681 34 13
-1.5561424 -0.87148142 -0.093472026 0 6
-1.5252893 -0.85385364 0.40356219 40 14
-1.5251886 -0.85344774 -0.030506806 5 7
-1.5039361 -0.84121037 0.46173319 46 15
-1.5422468 -0.85981441 0.030820949 2 8
-1.5511361 -0.86406118 0.093053341 1 9
-1.5266163 -0.85005277 0.15287116 5 10
-1.5299939 -0.85123408 0.21497753 5 11
-1.5400666 -0.85613436 0.27907911 8 12
-1.5204676 -0.84489131 0.33811355 30 13
-1.5299644 -0.8494702 0.40401211 40 14
-1.5176679 -0.84229594 -0.030297378 5 7
-1.5136204 -0.83970451 0.46380374 44 15
-1.541739 -0.85249043 0.030751141 2 8
-1.5576394 -0.8605727 0.09326268 1 9
-1.5349542 -0.84734076 0.1533941 5 10
-1.5242658 -0.84109288 0.21375884 3 11
-1.5482352 -0.85361493 0.28001773 7 12
-1.5166756 -0.83552396 0.33658707 30 13
-1.527946 -0.84103769 0.4026624 36 14
-1.5311097 -0.8427791 -0.030506806 5 7
-1.5114646 -0.83162212 0.46225086 46 15
-1.541346 -0.84491187 0.030681333 3 8
-1.5467693 -0.84718275 0.092425302 2 9
-1.541398 -0.84389073 0.15374273 5 10
-1.539529 -0.84216964 0.21546502 2 11
-1.5392202 -0.84130234 0.27782765 6 12
-1.5247514 -0.83304894 0.33773196 26 13
-1.5154781 -0.8272953 0.39861327 34 14
-1.5376991 -0.83907741 -0.030576617 4 7
-1.5246783 -0.83162701 0.46535668 47 15
-1.5372585 -0.83570564 0.030541712 6 8
-1.5233911 -0.82747859 0.090855226 3 9
-1.5215721 -0.82614613 0.15147668 5 10
-1.5372248 -0.8339507 0.21473379 2 11
-1.5317276 -0.83027613 0.27595043 5 12
-1.5224718 -0.82491523 0.33658707 22 13
-1.5269254 -0.82663906 0.40086278 30 14
-1.544136 -0.83560807 -0.030646425 5 7
-1.5173769 -0.82078505 0.46225086 46 15
-1.5313652 -0.82559007 0.030367188 7 8
-1.5385792 -0.82878578 0.091587931 5 9
-1.5191838 -0.8179965 0.15095374 6 10
-1.5488673 -0.83328176 0.2159525 2 11
-1.539836 -0.82773054 0.27688903 4 12
-1.5115066 -0.81216174 0.33353412 16 13
-1.5349523 -0.82406974 0.4022125 28 14
-1.5505676 -0.83210409 -0.030716237 5 7
-1.5032086 -0.8063513 0.45707443 44 15
-1.5183662 -0.81175429 0.030053046 8 8
-1.523846 -0.81400007 0.090541214 5 9
-1.5149996 -0.80893475 0.1502565 6 10
-1.5340004 -0.81770402 0.2753247 2 12
-1.5160652 -0.80780393 0.33391577 11 13
-1.5378197 -0.81870633 0.4022125 28 14
-1.5446361 -0.82198936 -0.030541712 2 7
-1.5094253 -0.80291408 0.45810974 42 15
-1.5229574 -0.80738586 0.03008795 11 8
-1.5196184 -0.80493629 0.090122528 6 9
-1.5213358 -0.80550605 0.15060511 6 10
-1.5508167 -0.81972927 0.27782765 2 12
-1.5268813 -0.80605513 0.39861327 25 14
-1.5704873 -0.8287251 -0.030995475 1 7
-1.512219 -0.79763991 0.45810974 41 15
-1.5257663 -0.80206513 0.03008795 12 8
-1.5047368 -0.79033965 0.089075804 8 9
-1.51179 -0.79370725 0.14938495 8 10
-1.5221751 -0.79780495 0.27219599 1 12
-1.5193266 -0.79529828 0.39591387 20 14
-1.5467932 -0.80933189 -0.0304719 1 7
-1.5201298 -0.79504234 0.45966265 40 15
-1.523237 -0.79396105 0.029983234 12 8
-1.5197483 -0.79180533 0.089808509 9 9
-1.512784 -0.78750563 0.14921063 9 10
-1.5353284 -0.79822004 0.27407321 1 12
-1.5202261 -0.7893576 0.39546397 13 14
-1.5547934 -0.80696166 -0.030576617 0 7
-1.5090392 -0.78287983 0.45552155 40 15
-1.5258616 -0.78890538 0.029983234 13 8
-1.5223657 -0.78676122 0.089808509 15 9
-1.5118465 -0.78065646 0.148862 10 10
-1.5159055 -0.78074282 0.39366436 10 14
-1.5894634 -0.81827664 -0.031204903 0 7
-1.4961671 -0.76991618 0.4508628 44 15
-1.5106757 -0.77471638 0.029634187 13 8
-1.5286577 -0.78326392 0.090017848 18 9
-1.5020136 -0.76928133 0.14764182 14 10
-1.5151504 -0.77367401 0.39276454 7 14
-1.5816234 -0.80726886 -0.030995475 0 7
-1.5022871 -0.76644474 0.45189807 42 15
-1.5044583 -0.76490659 0.029459663 12 8
-1.5242597 -0.77430522 0.08959917 21 9
-1.5224549 -0.77305365 0.14938495 18 10
-1.5108873 -0.76485974 0.39096493 6 14
-1.5416092 -0.78007418 -0.030157758 0 7
-1.5101252 -0.76381189 0.45345098 39 15
-1.5106903 -0.76145041 0.029529471 9 8
-1.5162504 -0.76358974 0.088971131 26 9
-1.5144662 -0.76235944 0.14833906 22 10
-1.5345807 -0.77114302 -0.1502565 0 5
-1.511806 -0.75870734 0.39051503 5 14
-1.5127821 -0.75853586 0.45345098 40 15
-1.5079726 -0.7534914 0.029424759 8 8
-1.5099719 -0.75383145 0.088447772 23 9
-1.5064214 -0.75173098 0.1472932 22 10
-1.4944623 -0.74446046 -0.14607303 0 5
-1.5502284 -0.7715649 -0.09075056 0 6
-1.5214244 -0.75689715 0.39231464 4 14
-1.4981213 -0.74465221 0.44827461 39 15
-1.4890904 -0.73757207 0.0290059 6 8
-1.514384 -0.74944222 0.088552445 22 9
-1.5054647 -0.74470121 0.14694458 22 10
-1.5564945 -0.7679162 -0.090959899 0 6
-1.5223094 -0.75071985 0.39186475 2 14
-1.4868481 -0.73258758 0.44413349 34 15
-1.488066 -0.73060709 0.02893609 2 8
-1.5169908 -0.74415141 0.088552445 17 9
-1.5010278 -0.73567098 0.14624733 18 10
-1.5485325 -0.75694352 -0.090331867 0 6
-1.539058 -0.75197959 0.39546397 2 14
-1.4928681 -0.72908819 0.44516876 26 15
-1.5015233 -0.73039645 0.029145518 2 8
-1.5088021 -0.73361146 0.087924413 11 9
-1.5017945 -0.72955626 0.14607303 16 10
-1.5421783 -0.74717933 -0.089808509 2 6
-1.5275133 -0.74007416 0.39186475 1 14
-1.4954039 -0.72387296 0.44516876 27 15
-1.5201472 -0.73323196 0.029459663 1 8
-1.4896376 -0.71819544 0.086668357 7 9
-1.5060006 -0.72543675 0.14624733 10 10
-1.5356461 -0.73773676 -0.08928515 1 6
-1.5264459 -0.7333169 0.39096493 1 14
-1.5099876 -0.72476161 0.44879225 23 15
-1.5261782 -0.72991234 0.029529471 1 8
-1.4921354 -0.7129916 0.086668357 6 9
-1.494015 -0.71356905 0.14485285 7 10
-1.536281 -0.73178136 -0.089180477 3 6
-1.502604 -0.71541822 0.3842164 1 14
-1.5072746 -0.71699673 0.44723931 21 15
-1.499805 -0.71087688 0.028970996 1 8
-1.4946152 -0.70777833 0.086668357 4 9
-1.4892935 -0.70494002 0.14415559 5 10
-1.5460505 -0.72982466 -0.08959917 5 6
-1.5156664 -0.71515852 0.3869158 1 14
-1.4870518 -0.70102203 0.44051 19 15
-1.5674361 -0.73624355 0.030227568 1 8
-1.4916526 -0.70001125 0.086354338 1 9
-1.482726 -0.69550687 0.14328404 1 10
-1.5250702 -0.71342206 -0.088238433 6 6
-1.5057967 -0.70408523 0.3837665 1 14
-1.4929903 -0.69746262 0.44154531 12 15
-1.5699966 -0.73076767 0.030227568 1 8
-1.4904647 -0.69311607 0.086144991 0 9
-1.4941785 -0.69452596 0.14415559 0 10
-1.5166789 -0.70305431 -0.087610394 6 6
-1.5082452 -0.69882464 0.3837665 1 14
-1.5024284 -0.69549268 0.44361585 9 15
-1.4928751 -0.68790913 0.086144991 0 9
-1.5364063 -0.70764303 0.14799045 0 10
-1.5118643 -0.69442093 -0.087191716 6 6
-1.4911944 -0.68461174 0.37881759 1 14
-1.5118707 -0.69346559 0.44568643 7 15
-1.57506 -0.71978921 0.030227568 1 8
-1.5643076 -0.71421552 0.090122528 0 9
-1.5207416 -0.69400388 0.14624733 0 10
-1.514279 -0.68913925 -0.087191716 7 6
-1.513087 -0.68827844 0.3837665 0 14
-1.501971 -0.68258888 0.44206294 6 15
-1.5775629 -0.7142868 0.030227568 1 8
-1.5203167 -0.68549144 -0.087401055 10 6
-1.5008214 -0.67575598 0.44102767 5 15
-1.5031711 -0.67051291 0.44102767 2 15
-1.4994951 -0.66354626 -0.085935652 13 6
-1.5195214 -0.67177349 0.44516876 2 15
-1.5035166 -0.65937179 -0.086040318 16 6
-1.5348867 -0.67249066 -0.029250234 0 7
-1.5430924 -0.6757648 0.45138043 1 15
-1.5204641 -0.66048598 -0.086877696 18 6
-1.5312634 -0.66422397 0.44723931 0 15
-1.5117526 -0.65043795 -0.086249664 22 6
-1.4909735 -0.64057273 0.434816 0 15
-1.4993147 -0.63889331 -0.085412286 25 6
-1.5500842 -0.65956867 0.45138043 0 15
-1.4904948 -0.62899691 -0.084784262 30 6
-1.4982097 -0.62610054 -0.085098274 31 6
-1.4948498 -0.61857593 -0.084784262 35 6
-1.5116733 -0.62491971 -0.028552137 0 7
-1.5006962 -0.61486858 -0.084993601 24 6
-1.5137373 -0.61990333 -0.028552137 0 7
-1.4897724 -0.60463101 -0.084260903 10 6
-1.5307174 -0.62062657 -0.028831376 1 7
-1.5161724 -0.60857588 -0.028517231 2 7
-0.59160709 -0.21404196 -0.032971658 9 6
-1.6670915 -0.59986132 0.030925665 1 8
-0.5208599 -0.1864948 -0.028994123 11 6
-0.55163091 -0.19534267 -0.030668873 10 6
-1.6560467 -0.58318657 0.030646425 1 8
-0.58054918 -0.20341909 -0.032238953 15 6
-1.688288 -0.587924 0.031204903 1 8
-1.6730165 -0.58162397 0.15496291 0 10
-0.47368565 -0.164121 -0.026272653 12 6
-1.6638595 -0.57291263 0.030716237 1 8
-0.49317974 -0.16885319 -0.027319372 12 6
-1.665948 -0.56681079 0.030716237 1 8
-0.50133348 -0.16969202 -0.027738059 12 6
-1.6641258 -0.5597167 0.030646425 1 8
-1.6812497 -0.55895168 0.030925665 2 8
-1.7096894 -0.56211692 0.03141433 2 8
-1.7078375 -0.55491012 0.031344522 1 8
-1.7288038 -0.55505818 0.03169357 1 8
-1.7374867 -0.55416882 -0.03183319 5 7
-1.7612281 -0.55869484 0.032252047 1 8
-1.7879345 -0.56441993 0.36444521 0 13
-1.7823 -0.55614859 0.36291873 1 13
-1.8023512 -0.55447567 -0.032915238 3 7
-1.8348889 -0.55748242 -0.033473715 2 7
-1.8234164 -0.54705107 -0.033229381 1 7
-1.842571 -0.54579431 -0.033543523 1 7
-1.8885128 -0.55259746 -0.034346335 0 7
-3.9576097 -0.62469983 0.9249987 19 14
-3.9503124 -0.59531385 0.92229939 29 14
-12.00767 1.3574873 0.21092978 3 8
-12.006095 1.4401424 0.21106941 5 8
-11.665045 1.4612285 -0.2052054 6 7
-11.988078 1.5208224 0.21092978 5 8
-11.978885 1.5239077 0.63284647 7 9
-11.63409 1.4986174 -0.20475163 9 7
-11.952953 1.5587809 0.21040621 8 8
-11.973494 1.5657099 0.63284647 9 9
-11.97366 1.5678573 1.0565019 13 10
-11.998147 1.5753237 1.4858311 8 11
-11.664473 1.5439396 -0.20537992 9 7
-11.957349 1.6018227 0.21058075 14 8
-11.963996 1.6069642 0.63263708 9 9
-11.954292 1.607785 1.0552818 14 10
-11.98864 1.616665 1.4853437 9 11
-11.651085 1.5835698 -0.20524029 9 7
-11.955647 1.6440972 0.21065055 10 8
-11.976238 1.6533183 1.0577221 11 10
-11.992756 1.6598645 1.4865624 9 11
-11.635585 1.6228521 -0.20506579 11 7
-11.926073 1.6824683 0.21023169 3 8
-11.930732 1.6873729 0.6314857 4 9
-11.97261 1.7039536 1.9153838 10 12
-11.967627 1.7309583 0.21106941 5 8
-7.8448372 1.1780177 -0.1384674 4 7
-11.955927 1.8209699 1.0580707 9 10
-7.8149066 1.2279742 -0.13808344 2 7
-11.655537 1.8523105 0.61850643 4 9
-11.718505 1.8707057 1.45707 4 11
-7.8206635 1.2554677 -0.13825797 2 7
-11.703348 1.8976243 0.20695063 3 8
-11.669101 1.9004323 1.0343643 9 10
-11.698523 1.9073198 1.4553638 9 11
-7.8497801 1.288263 -0.13885134 12 7
-11.680873 1.9358472 0.2066714 17 8
-11.681726 1.9401811 0.62059987 20 9
-11.686317 1.9430397 1.036456 37 10
-11.699626 1.9494492 1.4563388 23 11
-11.690397 1.9521055 1.8772138 13 12
-7.8452349 1.3156562 -0.13885134 12 7
-11.660241 1.9742755 0.20642707 13 8
-11.668975 1.9799414 0.62028581 11 9
-11.683393 1.9844884 1.0368047 9 10
-11.700577 1.9916064 1.4573137 6 11
-11.701036 1.9958901 1.8800297 7 12
-7.7716093 1.3312186 -0.13762967 4 7
-7.6256657 1.318552 0.13508162 8 8
-7.6088948 1.3197553 0.67563128 2 10
-7.5962143 1.3202872 0.94668114 1 11
-7.6067328 1.326219 1.5009036 2 13
-7.696003 1.3459352 -0.1363731 9 7
-11.660769 2.0624042 0.62059987 24 9
-11.690835 2.0698235 1.038722 39 10
-11.672706 2.0708187 1.4556075 20 11
-11.680984 2.0764933 1.8790911 16 12
-7.8408709 1.3994952 -0.13902587 2 7
-10.989478 1.9792975 0.19490847 3 8
-11.661361 2.1045117 0.62101847 33 9
-11.6855 2.1109741 1.0388964 60 10
-11.679079 2.1140268 1.4573137 35 11
-11.67172 2.1169024 1.8787781 27 12
-10.771035 1.9554868 2.127902 3 13
-10.580384 1.9265966 -0.18771808 3 7
-8.6664581 1.5796498 2.36043 2 15
-11.652212 2.1490943 1.0366304 18 10
-11.691151 2.1583831 1.4597511 23 11
-11.681741 2.1608655 1.8815941 13 12
-7.8918586 1.465517 -0.14010793 5 7
-8.3190136 1.5463436 2.2672548 3 15
-7.8598065 1.4737617 0.13958435 5 8
-7.8497152 1.4747078 0.41858301 1 9
-7.8166137 1.4698995 0.69585145 8 10
-7.8420949 1.4775274 0.97982955 5 11
-7.8575506 1.4832796 1.2664937 5 12
-7.8418679 1.4817367 1.5512772 7 13
-7.8637991 1.4887235 1.847748 2 14
-7.640842 1.447896 -0.13574483 16 7
-7.8995237 1.498341 2.1544099 5 15
-7.6149883 1.455391 0.13532595 24 8
-7.6287417 1.4607798 0.40706912 15 9
-7.631412 1.4626718 0.67981476 31 10
-7.6331277 1.4685276 1.2311394 22 12
-7.6438651 1.4719751 1.5131154 38 13
-7.6385069 1.4737103 1.7960092 27 14
-7.616107 1.4707655 -0.13539577 42 7
-7.6343913 1.4756804 2.0834932 31 15
-7.611825 1.482344 0.13536087 42 8
-7.6020331 1.4831934 0.40591773 27 9
-7.627955 1.4951617 1.2311394 37 12
-7.6329002 1.4975142 1.5119705 65 13
-7.6199312 1.4977322 1.7928599 38 14
-7.6050406 1.4961838 -0.13529105 24 7
-7.6291933 1.5023205 2.0834932 57 15
-7.6144495 1.5104637 0.13550049 12 8
-7.6242352 1.5151708 0.40738311 4 9
-4.5569758 0.90643847 0.40649435 29 10
-4.5730662 0.91129857 0.57254225 12 11
-7.6207523 1.5213926 1.2308265 20 12
-4.5602498 0.91039962 -0.40684301 3 5
-7.6314774 1.5249206 1.5127338 17 13
-7.6375871 1.5289119 1.7982588 11 14
-7.6201148 1.528181 2.0824583 23 15
-4.6160493 0.93243563 0.082200833 1 8
-4.5381622 0.91917586 0.4050999 73 10
-4.5562391 0.9244929 0.57083601 40 11
-4.565805 0.92726356 -0.57205474 9 4
-4.5960579 0.93507802 0.91168547 2 13
-4.5339174 0.92490786 -0.08076974 1 7
-4.5030785 0.92598754 0.080246165 1 8
-4.5139441 0.93479264 0.89603907 2 13
-4.4621334 0.92649978 -0.079548068 3 7
-4.4371858 0.92859209 0.079129212 1 8
-4.4497375 0.93365097 0.39777881 3 10
-4.4603119 0.93749624 0.55962408 6 11
-4.4414954 0.93596965 0.88230079 2 13
-4.3885994 0.92642277 -0.078291491 3 7
-4.3362851 0.92249626 0.077383965 1 8
-4.3816314 0.93294245 0.23477912 1 9
-4.3511376 0.92803735 0.38923752 1 10
-4.354291 0.93030012 0.5467059 6 11
-4.3481407 0.93136692 0.8643648 2 13
-4.2936096 0.9212538 -0.07665097 3 7
-4.2902026 0.92757416 0.076616064 2 8
-4.2963638 0.93047714 0.23038292 1 9
-4.2506776 0.92135829 0.38052195 1 10
-4.292985 0.93209875 0.53939372 6 11
-4.2625403 0.92782569 0.84795523 3 13
-4.2161264 0.92003506 -0.07532458 3 7
-4.1795211 0.91892689 0.074696302 2 8
-4.2189703 0.92914432 0.22640537 1 9
-4.1752844 0.92105258 0.37407246 3 10
-4.1927853 0.9256795 0.52720684 6 11
-4.2085896 0.93071043 0.68268013 2 12
-4.180522 0.9260332 0.83230883 2 13
-4.1328483 0.91698635 -0.073893487 3 7
-4.1019692 0.91765016 0.073369913 2 8
-4.1453743 0.9288798 0.22263718 1 9
-4.1195536 0.92384899 0.36936605 3 10
-4.1099544 0.92320317 0.51721358 6 11
-4.1044831 0.9242329 0.81780744 3 13
-4.1422544 0.93425626 0.98033673 1 14
-4.0650887 0.91759878 -0.072741628 3 7
-4.1342974 0.93397927 1.135698 1 15
-4.0480437 0.92043579 0.072462395 2 8
-4.0603166 0.92471701 0.21824095 1 9
-4.046371 0.92228377 0.36309084 3 10
-4.0370359 0.92163849 0.50843894 6 11
-4.0477676 0.92557508 0.65765053 2 12
-4.0495601 0.92672867 0.80750376 3 13
-4.0092363 0.91971099 -0.071799204 4 7
-4.0745263 0.93543607 1.1201688 3 15
-3.9707675 0.91745389 0.071136013 2 8
-3.9636641 0.91727006 0.21321672 1 9
-3.9693682 0.91931999 0.35646698 1 10
-3.9641793 0.91957617 0.49966437 6 11
-3.9964089 0.92852372 0.64982885 4 12
-3.9755476 0.92440706 0.79338378 3 13
-3.9436817 0.91917425 -0.07068225 3 7
-4.0185585 0.93736559 1.105675 3 15
-3.9188714 0.91988367 0.070263386 1 8
-3.9293299 0.92378688 0.21154197 1 9
-3.912641 0.92202526 0.49357089 1 11
-3.8995852 0.92325991 -0.069949247 3 7
-3.9021831 0.92963028 0.070019051 2 8
-3.9145885 0.93403071 0.21091393 1 9
-3.904882 0.93243414 0.35123762 1 10
-3.9288681 0.93961233 0.49600828 1 11
-3.9120572 0.9399237 -0.070228487 9 7
-3.902801 0.94418633 0.070088863 8 8
-3.9113042 0.9476887 0.21091393 9 9
-3.9074123 0.94746763 0.35176057 6 10
-3.8947001 0.94582468 0.49210843 1 11
-3.9696333 0.96622342 0.79414707 1 13
-3.8302433 0.9628014 -0.068937011 4 7
-3.8188646 0.96703017 0.068762481 13 8
-3.8004906 0.96308321 0.20547098 12 9
-3.8082695 0.96646929 0.34374225 10 10
-3.8189964 0.97061056 0.48382133 7 11
-3.8211951 0.97187936 0.62448645 1 12
-3.867801 0.98517048 0.77582937 1 13
-3.8171709 0.97369438 -0.068762481 8 7
-3.8059525 0.97720236 0.068587959 6 8
-3.8127515 0.97965634 0.20630836 3 9
-3.781889 0.97313482 0.34165049 3 10
-3.8292127 0.98673707 0.48552752 3 11
-3.8302968 0.98915517 0.7689603 1 13
-3.8216648 0.98835015 -0.068902098 8 7
-3.7988205 0.98881054 0.068518147 5 8
-3.8286352 0.99799818 0.20735508 3 9
-3.8152709 0.99522579 0.34496242 1 10
-3.8143957 0.99641949 0.48406506 3 11
-3.8488908 1.0068657 0.63011813 1 12
-3.8269954 1.0018516 0.7689603 1 13
-3.8297975 1.0047281 -0.069111533 8 7
-3.795346 1.0020641 0.068518147 8 8
-3.8174047 1.0093145 0.20693639 4 9
-3.8098478 1.0080271 0.3447881 3 10
-3.8089755 1.0092199 0.48382133 5 11
-3.8453526 1.0202949 0.63011813 1 12
-3.8234749 1.0152043 0.7689603 1 13
-3.9165432 1.0406475 -0.21237932 1 6
-3.814672 1.0150054 -0.068902098 8 7
-3.7995517 1.0173752 0.068657771 5 8
-3.8138583 1.0226328 0.20693639 4 9
-3.8120787 1.0228689 0.34531105 3 10
-3.8130977 1.0245701 0.48479629 4 11
-3.8226924 1.028579 0.62698942 2 12
-3.8199079 1.0285447 0.7689603 5 13
-3.8222485 1.0298903 -0.20745975 11 6
-3.8402314 1.0354548 0.9182502 1 14
-3.8130364 1.028836 -0.068937011 15 7
-3.8382978 1.0363706 1.0652993 1 15
-3.8094854 1.0343007 0.068902098 42 8
-3.8006291 1.0333196 0.20641303 48 9
-3.8142526 1.0377395 0.34583399 49 10
-3.8131471 1.0395832 -0.48528376 2 4
-3.7904925 1.0341177 0.62229639 52 12
-3.8500476 1.0503653 -0.34914589 1 5
-3.7971182 1.0380615 0.90880221 56 14
-3.7806213 1.0349699 1.0502877 48 15
-3.8000679 1.046 0.068797387 83 8
-3.8085515 1.0497645 0.20704105 93 9
-3.8144481 1.0521071 0.34618258 100 10
-3.8102582 1.0516659 -0.62605083 6 3
-3.8020251 1.0501086 0.48430881 109 11
-3.8133221 1.0539452 -0.48577127 10 4
-3.8039951 1.052081 0.62511224 86 12
-3.8463578 1.0637972 -0.34914589 1 5
-3.8050661 1.053093 0.76743382 86 13
-3.8226645 1.0586818 -0.20787844 68 6
-3.8141296 1.0570339 0.91375118 91 14
-3.7922719 1.05169 -0.068692669 93 7
-3.7807088 1.0491939 1.0513231 82 15
-3.7983201 1.059795 0.068832293 100 8
-3.8144815 1.0657406 0.20756441 100 9
-3.8516431 1.0761232 -0.77735591 1 2
-3.7973208 1.0616595 0.34496242 100 10
-3.808466 1.0654922 -0.62636369 8 3
-3.8059826 1.0655146 0.48528376 120 11
-3.8134429 1.0683199 -0.48625872 10 4
-3.8098097 1.0680192 0.6266765 100 12
-3.8196001 1.0707637 -0.34705415 1 5
-3.7994761 1.0658385 0.76705217 83 13
-3.8074083 1.0687795 -0.20725042 68 6
-3.8085401 1.0698153 0.91330135 100 14
-3.8039784 1.0692502 -0.06897191 96 7
-3.7900412 1.0660453 1.0549464 100 15
-3.8080673 1.0768563 0.069076627 100 8
-3.8070827 1.0772965 0.20735508 100 9
-3.8554194 1.0917002 -0.77888238 1 2
-3.8070104 1.0787103 0.34618258 100 10
-3.8085246 1.0798584 -0.62698942 8 3
-3.7946017 1.0766253 0.48430881 120 11
-3.8096905 1.0816249 -0.48625872 8 4
-3.8100476 1.0817262 0.62730229 100 12
-3.8388371 1.0906249 -0.34914589 1 5
-3.8051751 1.0817782 0.7689603 87 13
-3.8055754 1.0826099 -0.20735508 71 6
-3.801034 1.082036 0.9124015 100 14
-3.8042581 1.0829538 -0.069041722 100 7
-3.7976329 1.0817834 1.0580523 100 15
-3.80832 1.0905795 0.069146432 100 8
-3.79562 1.0883763 0.20693639 100 9
-3.8327141 1.0997367 -0.7750662 1 2
-3.8108819 1.0941923 0.34687987 100 10
-3.8125172 1.0946618 -0.62824088 8 3
-3.7967341 1.0908474 0.48504004 125 11
-3.8022671 1.0931554 -0.48577127 10 4
-3.8043499 1.0944741 0.62698942 100 12
-3.835007 1.1040176 -0.34914589 1 5
-3.8091133 1.0965633 0.77048677 90 13
-3.8038838 1.0957767 -0.20745975 79 6
-3.7880621 1.0919361 0.9101519 100 14
-3.7985339 1.0956717 -0.069006816 100 7
-3.8031137 1.0977117 1.0606405 100 15
-3.808331 1.1049808 0.069216244 100 8
-3.7994695 1.1038477 0.20735508 100 9
-3.8026521 1.1047724 -0.76972359 1 2
-3.8072324 1.1068237 0.34687987 100 10
-3.8124661 1.1090668 -0.62886661 8 3
-3.808151 1.1085324 0.48698995 127 11
-3.8060515 1.108642 -0.48674619 10 4
-3.7929204 1.1055351 0.62573791 100 12
-3.81411 1.1117114 -0.3475771 2 5
-3.8165708 1.1131513 0.77277648 100 13
-3.8038702 1.1101673 -0.20766909 96 6
-3.7973223 1.1089756 0.91330135 100 14
-3.7889278 1.1072417 -0.068902098 102 7
-3.7992585 1.1109813 1.0606405 100 15
-3.794858 1.1154473 0.069041722 110 8
-3.7917612 1.115976 0.20714574 100 9
-3.8100724 1.1213652 -0.77201319 2 2
-3.7918785 1.1167287 0.34583399 114 10
-3.7972031 1.119018 -0.62698942 9 3
-3.8042583 1.1218188 0.48698995 135 11
-3.8116782 1.1247299 -0.4879649 12 4
-3.7909331 1.1193278 0.62605083 107 12
-3.7777219 1.1154269 -0.34461379 2 5
-3.7957165 1.1214603 0.76934189 107 13
-3.8076327 1.1257036 -0.20808777 75 6
-3.8046401 1.1255409 0.91600066 112 14
-3.7907922 1.1221637 -0.069006816 100 7
-3.7786872 1.1192977 1.0559818 103 15
-3.7813582 1.1258349 0.068867192 66 8
-3.7993269 1.1326276 0.20777377 67 9
