# .PCD v0.7 - Point Cloud Data file format
VERSION 0.7
FIELDS x y z intensity ring
SIZE 4 4 4 4 2
TYPE F F F F U
COUNT 1 1 1 1 1
WIDTH 1212
HEIGHT 1
VIEWPOINT 0 0 0 1 0 0 0
POINTS 1212
DATA ascii
-0.50716937 -1.3934364 0.18207282 58 11
-0.32672745 -0.8971892 -0.11723832 21 4
-0.50719988 -1.3920084 0.23465173 58 12
-0.32346588 -0.88726962 -0.082623646 60 5
-0.51038074 -1.3999785 0.28964809 40 13
-0.33810005 -0.92690814 -0.051707931 29 6
-0.50842875 -1.3931129 0.34237552 59 14
-0.51031214 -1.3975161 -0.025969181 61 7
-1.5155028 -4.1480346 1.1833206 9 15
-0.52008414 -1.4173632 0.026353134 75 8
-0.51581252 -1.4042062 0.078399271 65 9
-0.51710677 -1.4062128 0.13108224 54 10
-0.3328619 -0.90469217 -0.15268005 100 3
-0.51888472 -1.4102874 0.1845102 71 11
-0.33260038 -0.90349472 -0.11821327 18 4
-0.51069033 -1.3865221 0.23402599 61 12
-0.3238053 -0.87865716 -0.081926398 60 5
-0.51686686 -1.4017825 0.29041129 41 13
-0.34702528 -0.94065332 -0.052545305 26 6
-0.51960468 -1.4076936 0.34642464 57 14
-0.51380241 -1.3919743 -0.025899371 60 7
-1.5098941 -4.0883527 1.1677916 9 15
-0.52388412 -1.4116979 0.026283324 75 8
-0.52488226 -1.4136313 0.079027303 63 9
-0.51854157 -1.3950614 0.13021068 52 10
-0.33188638 -0.89241588 -0.15080284 100 3
-0.52266556 -1.4046553 0.18402272 71 11
-0.33937261 -0.91157132 -0.11943197 16 4
-0.51897317 -1.3939872 0.23559032 62 12
-0.32408854 -0.87005317 -0.08122915 56 5
-0.51969981 -1.3944508 0.28926644 42 13
-0.34960887 -0.93756485 -0.052440636 24 6
-0.52519649 -1.4076971 0.34687454 58 14
-0.52285218 -1.4014137 -0.0261088 61 7
-1.4971325 -4.0106626 1.147086 9 15
-0.52575469 -1.4024631 0.026143704 75 8
-0.52841008 -1.4080505 0.078817956 65 9
-0.52761203 -1.4044335 0.13125655 55 10
-0.33345455 -0.88761193 -0.15017711 100 3
-0.52801919 -1.4047724 0.18426646 69 11
-0.34169489 -0.90858287 -0.11918823 13 4
-0.52800983 -1.4032602 0.23746756 60 12
-0.33203742 -0.88196903 -0.082449332 48 5
-0.52362955 -1.3908825 0.28888482 41 13
-0.35060397 -0.93079305 -0.052126616 21 6
-0.53123605 -1.4095949 0.34777433 58 14
-0.52915186 -1.4033223 -0.026178611 60 7
-1.5002122 -3.9764919 1.1388038 11 15
-0.53135568 -1.4024893 0.026178611 71 8
-0.53332198 -1.4061975 0.078817956 62 9
-0.53226644 -1.4026761 0.13125655 49 10
-0.3393555 -0.89382964 -0.15142858 100 3
-0.5279851 -1.3899307 0.18256028 66 11
-0.33922234 -0.89253992 -0.11723832 21 4
-0.53290492 -1.4014086 0.23746756 59 12
-0.33653104 -0.88452893 -0.082797952 48 5
-0.52778333 -1.3872112 0.28850323 41 13
-0.34816644 -0.91463083 -0.051289242 29 6
-0.5333789 -1.4004474 0.34597474 58 14
-0.53547144 -1.4052038 -0.02624842 59 7
-1.4948132 -3.9206886 1.12431 9 15
-0.53982288 -1.4099635 0.026353134 73 8
-0.53608298 -1.3987324 0.078503944 61 9
-0.54525453 -1.421178 0.13317397 60 10
-0.34404513 -0.89626819 -0.15205432 100 3
-0.53781348 -1.401052 0.18426646 67 11
-0.34447089 -0.89690977 -0.11796954 16 4
-0.53495932 -1.3921641 0.23621608 60 12
-0.3431915 -0.89264727 -0.083669513 50 5
-0.5370934 -1.3962615 0.29079291 42 13
-0.35438591 -0.9208045 -0.051707931 23 6
-0.53500682 -1.3893902 0.34372523 55 14
-0.53893596 -1.3995939 -0.026178611 59 7
-1.4946002 -3.8793931 1.1139573 11 15
-0.54570889 -1.4098403 0.02638804 71 8
-0.54456848 -1.406165 0.079027303 65 9
-0.54373032 -1.4025469 0.13160518 55 10
-0.34931451 -0.90058678 -0.15299292 98 3
-0.54581773 -1.406474 0.18524142 69 11
-0.3484745 -0.89749163 -0.11821327 16 4
-0.53838563 -1.3866053 0.23559032 60 12
-0.34197643 -0.88030088 -0.082623646 60 5
-0.5448088 -1.4016979 0.29231939 42 13
-0.36194131 -0.93073058 -0.052335959 21 6
-0.54479975 -1.400227 0.34687454 58 14
-0.54236799 -1.3939769 -0.0261088 59 7
-2.6189079 -6.7275586 1.9344137 11 15
-0.54819709 -1.4024355 0.026283324 68 8
-0.54874587 -1.4023955 0.078922629 67 9
-0.34711826 -0.88665247 -0.18508473 5 2
-0.54498959 -1.3913646 0.13073361 56 10
-0.34797639 -0.88838762 -0.1511157 100 3
-0.55120295 -1.4065044 0.18548515 65 11
-0.35434726 -0.90372354 -0.11918823 14 4
-0.54466528 -1.3883955 0.23621608 59 12
-0.34431934 -0.87724704 -0.082449332 63 5
-0.54515028 -1.3889184 0.2900297 42 13
-0.36575574 -0.93138444 -0.052440636 21 6
-0.54872751 -1.3965988 0.34642464 55 14
-0.54869384 -1.3957974 -0.026178611 59 7
-1.4792213 -3.7609961 1.0828989 11 15
-0.55235457 -1.3986535 0.02624842 71 8
-0.55730915 -1.4097586 0.079445995 63 9
-0.5525316 -1.3969606 0.13143085 56 10
-0.35107535 -0.88716757 -0.1511157 99 3
-0.55026317 -1.3898063 0.18353525 65 11
-0.35676873 -0.90063548 -0.1189445 11 4
-0.55241972 -1.3938315 0.23746756 59 12
-0.34649238 -0.87424827 -0.082275018 51 5
-0.54854769 -1.3833568 0.28926644 42 13
-0.36826822 -0.92824537 -0.052335959 22 6
-0.56006974 -1.4109764 0.35047373 51 14
-0.55651492 -1.4013075 -0.026318228 59 7
-1.476647 -3.7163129 1.0715109 11 15
-0.56019759 -1.4041462 0.02638804 69 8
-0.55926365 -1.4003853 0.079027303 65 9
-0.5603618 -1.402424 0.1321281 56 10
-0.35563657 -0.8896051 -0.15174145 89 3
-0.55584824 -1.3897202 0.18377897 67 11
-0.35769773 -0.89385575 -0.11821327 12 4
-0.56168711 -1.4028977 0.23934476 57 12
-0.35028252 -0.87488306 -0.082449332 45 5
-0.55264318 -1.3796113 0.28888482 40 13
-0.36630499 -0.91397691 -0.051603258 23 6
-0.55773884 -1.3909254 0.34597474 50 14
-0.56438148 -1.4067799 -0.026457848 56 7
-1.472339 -3.668108 1.0590875 13 15
-0.56659037 -1.4058917 0.026457848 69 8
-0.56115979 -1.3910156 0.078608617 65 9
-0.5667451 -1.4041547 0.13247673 58 10
-0.36021894 -0.89202166 -0.15236719 85 3
-0.5644142 -1.3969742 0.18499769 65 11
-0.36081561 -0.89260167 -0.11821327 17 4
-0.55917448 -1.3826157 0.23621608 59 12
-0.35632235 -0.88104326 -0.08314658 50 5
-0.56261039 -1.3904132 0.29155618 41 13
-0.36799419 -0.90899014 -0.051393915 27 6
-0.56259072 -1.38897 0.34597474 52 14
-0.56628436 -1.3973882 -0.026318228 60 7
-1.4727945 -3.6325111 1.0502877 13 15
-0.57224828 -1.4057577 0.026492754 68 8
-0.57128751 -1.4019955 0.079341315 67 9
-0.57013893 -1.3984778 0.1321281 56 10
-0.3663148 -0.8980751 -0.15361866 81 3
-0.57078707 -1.3986713 0.18548515 62 11
-0.36467969 -0.89317459 -0.11845701 12 4
-0.56399733 -1.3806554 0.23621608 61 12
-0.36090252 -0.88348293 -0.0834952 43 5
-0.57043129 -1.3957101 0.29308262 42 13
-0.37796837 -0.92433804 -0.052335959 30 6
-0.56891149 -1.390605 0.34687454 52 14
-0.56964356 -1.3917017 -0.02624842 59 7
-1.4664303 -3.5808663 1.0368291 13 15
-0.57639158 -1.4019018 0.026457848 69 8
-0.57517385 -1.3982463 0.079236642 65 9
-0.36761618 -0.89323127 -0.18775606 5 2
-0.5719825 -1.3891097 0.13143085 56 10
-0.36342791 -0.88217926 -0.1511157 80 3
-0.57793534 -1.4021764 0.18621638 67 11
-0.36779514 -0.89189619 -0.11845701 12 4
-0.57233793 -1.3879086 0.23778042 56 12
-0.36018476 -0.87300885 -0.082623646 39 5
-0.57230359 -1.3864516 0.29155618 42 13
-0.38043013 -0.92116708 -0.052231289 21 6
-0.57822704 -1.3994169 0.34957394 52 14
-0.57731003 -1.3971975 -0.02638804 57 7
-1.4620601 -3.5367069 1.0254411 12 15
-0.57873774 -1.394442 0.026353134 68 8
-0.58618104 -1.4109855 0.08007402 63 9
-0.36545739 -0.87925225 -0.18508473 5 2
-0.57835788 -1.3907841 0.13177948 56 10
-0.36483431 -0.87732142 -0.15048997 85 3
-0.57876927 -1.3910881 0.18499769 65 11
-0.37609082 -0.9035002 -0.12016319 11 4
-0.57945752 -1.3913729 0.23871902 57 12
-0.36476254 -0.87542444 -0.082972266 38 5
-0.57538772 -1.3809216 0.29079291 41 13
-0.38117731 -0.91437006 -0.051917274 19 6
-0.58436489 -1.401089 0.35047373 49 14
-0.58372384 -1.3988647 -0.026457848 59 7
-1.4565338 -3.4887967 1.0130178 12 15
-0.58746648 -1.4016346 0.026527658 69 8
-0.58776736 -1.4016663 0.079655334 65 9
-0.58605123 -1.3962071 0.13247673 56 10
-0.37248373 -0.88697028 -0.15236719 69 3
-0.5828526 -1.3872292 0.18475394 67 11
-0.37539598 -0.89303201 -0.1189445 10 4
-0.58559918 -1.3930857 0.23934476 59 12
-0.37075323 -0.88155633 -0.083669513 32 5
-0.5817275 -1.382524 0.29155618 43 13
-0.38049194 -0.90382999 -0.051393915 23 6
-0.5862264 -1.3918568 0.34867415 49 14
-0.59146428 -1.4042929 -0.026597466 56 7
-1.4545921 -3.4519029 1.0037004 12 15
-0.59366947 -1.4033622 0.026597466 69 8
-0.58642626 -1.3848927 0.078817956 62 9
-0.37219957 -0.87855214 -0.18546635 7 2
-0.59092158 -1.3941529 0.13247673 56 10
-0.37619391 -0.88754892 -0.15268005 74 3
-0.59209955 -1.3962542 0.18621638 67 11
-0.37525406 -0.88447255 -0.11796954 12 4
-0.58737123 -1.3837599 0.23809329 57 12
-0.37382811 -0.88025683 -0.083669513 30 5
-0.58937842 -1.3878155 0.29308262 43 13
-0.38583022 -0.90807784 -0.051707931 19 6
-0.58931404 -1.3863183 0.34777433 52 14
-0.5932321 -1.3948591 -0.026457848 56 7
-1.4515047 -3.4112523 0.99334759 12 15
-0.6017065 -1.4086372 0.026737086 69 8
-0.59180039 -1.3847769 0.078922629 61 9
-0.37511083 -0.87731308 -0.18546635 19 2
-0.59554136 -1.3921857 0.13247673 56 10
-0.38006687 -0.88804644 -0.15299292 58 3
-0.59462571 -1.3887043 0.18548515 62 11
-0.37912089 -0.88498199 -0.11821327 11 4
-0.59195662 -1.3818045 0.23809329 57 12
-0.37360555 -0.87168717 -0.082972266 36 5
-0.59654045 -1.3911628 0.29422748 44 13
-0.38978523 -0.90856099 -0.051812604 19 6
-0.59414953 -1.3842528 0.34777433 50 14
-0.59627682 -1.389209 -0.02638804 56 7
-1.4475636 -3.3709176 0.98299474 12 15
-0.60241634 -1.3974525 0.026562562 68 8
-0.60216951 -1.3955396 0.079655334 63 9
-0.37817106 -0.87599826 -0.18546635 35 2
-0.59881741 -1.38644 0.1321281 56 10
-0.38144317 -0.88315421 -0.15236719 63 3
-0.60395193 -1.3976583 0.18694758 65 11
-0.38520446 -0.89100826 -0.11918823 10 4
-0.59756058 -1.3815426 0.23840615 56 12
-0.37585467 -0.86854929 -0.082797952 35 5
-0.59725177 -1.3801681 0.29231939 42 13
-0.39517647 -0.91276199 -0.052126616 15 6
-0.60338402 -1.3930041 0.35047373 52 14
-0.60112262 -1.3871191 -0.02638804 56 7
-1.442415 -3.3268509 0.97160673 12 15
-0.60434091 -1.3879013 0.026422944 68 8
-0.61366439 -1.4079705 0.080492713 62 9
-0.37495112 -0.86027503 -0.1824134 6 2
-0.60524601 -1.3879941 0.13247673 56 10
-0.3830978 -0.87812912 -0.15174145 64 3
-0.60589415 -1.388158 0.18597263 63 11
-0.39005634 -0.89322889 -0.1196757 10 4
-0.60657442 -1.3883939 0.23997049 57 12
-0.38127726 -0.87270916 -0.083320886 38 5
-0.60230649 -1.3779696 0.29231939 43 13
-0.39611846 -0.90581769 -0.051812604 13 6
-0.61161 -1.3979245 0.35227334 49 14
-0.61101365 -1.395898 -0.026597466 56 7
-1.4390997 -3.2861495 0.961254 13 15
-0.61079144 -1.3894447 0.026492754 68 8
-0.61214036 -1.3911949 0.079655334 62 9
-0.39218429 -0.89130676 -0.18928254 4 2
-0.61329836 -1.393167 0.13317397 56 10
-0.38775304 -0.88040209 -0.15236719 60 3
-0.60753441 -1.3787683 0.18499769 63 11
-0.39157054 -0.88822895 -0.11918823 9 4
-0.61460561 -1.3934978 0.24122196 57 12
-0.38592923 -0.87501895 -0.083669513 31 5
-0.60869807 -1.379451 0.29308262 45 13
-0.39685819 -0.89894801 -0.051498584 20 6
-0.61176181 -1.3850855 0.34957394 50 14
-0.61911553 -1.401073 -0.026737086 53 7
-1.439626 -3.2563698 0.95400703 12 15
-0.61888224 -1.3946153 0.026632372 66 8
-0.61456048 -1.3835738 0.079341315 60 9
-0.38652658 -0.87019587 -0.18508473 3 2
-0.62058496 -1.3964797 0.1336969 54 10
-0.39082387 -0.87904328 -0.15236719 57 3
-0.6155706 -1.3838942 0.18597263 60 11
-0.39063311 -0.87778878 -0.11796954 12 4
-0.61544901 -1.3823209 0.23965763 56 12
-0.38979182 -0.87548655 -0.083843827 29 5
-0.61910135 -1.3898717 0.29575396 43 13
-0.40243262 -0.90303022 -0.051812604 13 6
-0.61500603 -1.3793818 0.34867415 52 14
-0.62074393 -1.3915983 -0.026597466 54 7
-1.4336631 -3.2125134 0.94261903 11 15
-0.62865144 -1.4033964 0.026841803 66 8
-0.62347186 -1.3905324 0.079864673 62 9
-0.39357781 -0.8777985 -0.18699282 3 2
-0.62300938 -1.3888515 0.13317397 56 10
-0.39550754 -0.88127804 -0.15299292 47 3
-0.62446308 -1.3907917 0.18719132 63 11
-0.39857519 -0.88728452 -0.11943197 7 4
-0.61703128 -1.372957 0.23840615 53 12
-0.38794497 -0.86321682 -0.082797952 34 5
-0.62555933 -1.3912833 0.29651719 47 13
-0.40722117 -0.90526271 -0.052021943 18 6
-0.62301618 -1.384335 0.35047373 49 14
-0.62559766 -1.389423 -0.026597466 56 7
-1.4321736 -3.1793072 0.93433678 11 15
-0.62695557 -1.3866166 0.026562562 64 8
-0.63326293 -1.3992652 0.080492713 63 9
-0.39421111 -0.87105346 -0.18584797 6 2
-0.62621009 -1.3830382 0.13282534 56 10
-0.39613605 -0.87449408 -0.15205432 49 3
-0.63177222 -1.3940277 0.18792254 60 11
-0.4016701 -0.8858878 -0.11943197 7 4
-0.62753224 -1.3833876 0.24059623 55 12
-0.39095575 -0.86185741 -0.082797952 32 5
-0.62878937 -1.3855157 0.29575396 43 13
-0.41285565 -0.90929151 -0.052335959 23 6
-0.63026249 -1.3874747 0.35182345 48 14
-0.63044387 -1.3872309 -0.026597466 56 7
-1.4248718 -3.1338408 0.92243111 12 15
-0.63345242 -1.3880581 0.026632372 64 8
-0.63648379 -1.3934127 0.080283366 62 9
-0.40132782 -0.87860101 -0.18775606 6 2
-0.63269019 -1.3844683 0.13317397 56 10
-0.39754358 -0.86951292 -0.15142858 47 3
-0.63580877 -1.3900087 0.1876788 65 11
-0.4080641 -0.89170063 -0.12040692 6 4
-0.63235754 -1.3811885 0.24059623 55 12
-0.3964501 -0.86592203 -0.083320886 26 5
-0.62789887 -1.3708178 0.29308262 42 13
-0.41020283 -0.8951351 -0.051603258 22 6
-0.63997483 -1.3958948 0.35452285 46 14
-0.63861722 -1.3922921 -0.026737086 54 7
-1.4261336 -3.1077781 0.91621947 12 15
-0.63829362 -1.3858385 0.026632372 68 8
-0.63883555 -1.385741 0.079969354 60 9
-0.40685821 -0.88254339 -0.18890092 7 2
-0.63751888 -1.3822514 0.13317397 58 10
-0.40554193 -0.87888181 -0.15330578 41 3
-0.63732898 -1.3805715 0.18670385 62 11
-0.40950966 -0.8866663 -0.11991944 7 4
-0.64048898 -1.3861457 0.24184772 53 12
-0.40030587 -0.86634165 -0.0834952 30 5
-0.63515157 -1.3739638 0.29422748 44 13
-0.40745628 -0.88100833 -0.050870556 21 6
-0.64157021 -1.386578 0.35272324 48 14
-0.64683354 -1.3973132 -0.026876707 53 7
-1.4256073 -3.0782394 0.9089725 13 15
-0.6481846 -1.3944821 0.026841803 68 8
-0.64282596 -1.3816918 0.079864673 62 9
-0.40413913 -0.86865771 -0.1862296 6 2
-0.6465438 -1.3890491 0.13404553 54 10
-0.40277031 -0.86492556 -0.1511157 41 3
-0.64130563 -1.3765392 0.18646011 60 11
-0.40505442 -0.86903834 -0.11772579 9 4
-0.64198464 -1.3767402 0.24059623 52 12
-0.40416977 -0.8667447 -0.083669513 22 5
-0.64409351 -1.3806344 0.29613557 45 13
-0.41475266 -0.88862979 -0.051393915 15 6
-0.64475739 -1.3807986 0.35182345 48 14
-0.64832169 -1.3877999 -0.026737086 56 7
-1.4257103 -3.0504925 0.9022432 13 15
-0.65644526 -1.3994528 0.026981421 68 8
-0.65188915 -1.388479 0.080388032 61 9
-0.40800318 -0.86901873 -0.18661121 0 2
-0.6488474 -1.3813736 0.1335226 56 10
-0.41502836 -0.88318044 -0.15455727 38 3
-0.65032971 -1.3832744 0.1876788 63 11
-0.41315487 -0.87839699 -0.11918823 7 4
-0.64678615 -1.374491 0.24059623 52 12
-0.40379933 -0.85811758 -0.082972266 26 5
-0.65309036 -1.3872588 0.29804367 44 13
-0.41615 -0.88356292 -0.051184569 21 6
-0.64957309 -1.3785397 0.35182345 47 14
-0.65145677 -1.3819108 -0.026667278 54 7
-1.4165723 -3.0035627 0.88981992 16 15
-0.65790415 -1.389923 0.026841803 68 8
-0.66100752 -1.3952199 0.080911398 62 9
-0.41271529 -0.87113774 -0.18737444 0 2
-0.65366536 -1.3791003 0.1335226 56 10
-0.41133776 -0.86744738 -0.15205432 45 3
-0.66196108 -1.3953439 0.18962872 62 11
-0.41451621 -0.87336272 -0.11870075 7 4
-0.65242743 -1.3740094 0.2409091 48 12
-0.41021076 -0.86390203 -0.083669513 20 5
-0.65455884 -1.3778775 0.29651719 47 13
-0.42866203 -0.90194774 -0.052335959 21 6
-0.65940231 -1.3868232 0.35452285 44 14
-0.65799421 -1.3832401 -0.026737086 54 7
-1.4129347 -2.9689453 0.88102001 55 15
-0.65930456 -1.3804002 0.026702182 64 8
-0.66476953 -1.3912179 0.080806725 60 9
-0.41236666 -0.8626067 -0.18584797 0 2
-0.66191393 -1.3839998 0.13421984 56 10
-0.41521579 -0.86778808 -0.15236719 43 3
-0.66168511 -1.3822817 0.18816628 58 11
-0.42598119 -0.88988853 -0.12113813 6 4
-0.66124636 -1.3807462 0.24247345 48 12
-0.41322383 -0.86246485 -0.083669513 20 5
-0.65936458 -1.3755842 0.29651719 43 13
-0.42662615 -0.88964063 -0.051707931 19 6
-0.66652519 -1.3899003 0.35587254 45 14
-0.66603762 -1.3882622 -0.026876707 54 7
-1.4286239 -2.9764347 0.88464355 61 15
-0.66734982 -1.3854126 0.026841803 68 8
-0.67111355 -1.3926044 0.081016071 61 9
-0.42971942 -0.89129812 -0.19233547 7 2
-0.66736543 -1.3835917 0.13439415 54 10
-0.41637424 -0.86284828 -0.15174145 41 3
-0.66626537 -1.3800797 0.18816628 62 11
-0.4202995 -0.87059432 -0.11870075 6 4
-0.66582149 -1.3785459 0.24247345 48 12
-0.41521478 -0.85929585 -0.0834952 20 5
-0.66306818 -1.3716226 0.29613557 45 13
-0.42870444 -0.88642299 -0.051603258 17 6
-0.66688836 -1.3789107 0.35362303 17 14
-0.67412144 -1.3932461 -0.027016325 54 7
-1.4410117 -2.9768975 0.88619649 64 15
-0.67543525 -1.3903869 0.026981421 66 8
-0.67073047 -1.3794761 0.080388032 61 9
-0.42065409 -0.86514962 -0.18699282 9 2
-0.67543572 -1.3885378 0.13509139 55 10
-0.4209621 -0.86501515 -0.15236719 38 3
-0.67344511 -1.3832171 0.18889751 61 11
-0.42159736 -0.86555266 -0.11821327 7 4
-0.67236018 -1.3797648 0.24309918 45 12
-0.41821179 -0.85784119 -0.0834952 21 5
-0.67019403 -1.3747103 0.29728043 44 13
-0.43164158 -0.88499647 -0.051603258 21 6
-1.4502172 -2.9720697 0.76348388 52 14
-0.67722625 -1.3872905 -0.026946515 53 7
-1.4547852 -2.9787927 0.88826698 64 15
-0.68028486 -1.3880205 0.026981421 64 8
-0.67730063 -1.3807129 0.080597378 61 9
-0.42122737 -0.85831469 -0.18584797 7 2
-0.67613006 -1.3771106 0.13421984 56 10
-0.43109694 -0.8776508 -0.15487014 30 3
-0.67826933 -1.3808579 0.18889751 61 11
-0.42986915 -0.87476534 -0.1196757 6 4
-0.67107177 -1.3650004 0.2409091 42 12
-0.42208305 -0.85816401 -0.083669513 15 5
-0.67869526 -1.3792908 0.29880691 39 13
-0.43841079 -0.890576 -0.052021943 13 6
-1.4679887 -2.9807203 0.76708305 63 14
-0.67853069 -1.3777423 -0.026806895 53 7
-1.4634668 -2.9702306 0.88723171 66 15
-0.68536735 -1.3855181 0.026981421 64 8
-0.68743134 -1.3890804 0.08122541 61 9
-0.4250918 -0.85859859 -0.1862296 4 2
-0.68181759 -1.3765272 0.13439415 54 10
-0.42889538 -0.86552066 -0.15299292 35 3
-0.68508899 -1.3819199 0.18938497 61 11
-0.43307245 -0.87318385 -0.1196757 7 4
-0.67583245 -1.3626496 0.2409091 42 12
-0.42507604 -0.8566854 -0.083669513 16 5
-1.480492 -2.9824333 0.64722413 48 13
-0.4432936 -0.89261788 -0.052231289 18 6
-1.481853 -2.9825587 0.76888269 61 14
-0.6851154 -1.3789471 -0.026876707 56 7
-1.4764056 -2.9702938 0.88878465 64 15
-0.68638784 -1.3760798 0.026841803 66 8
-0.69406021 -1.3902463 0.081434757 60 9
-0.42896372 -0.85886574 -0.18661121 1 2
-0.6875087 -1.3759214 0.13456847 58 10
-0.42823124 -0.8570255 -0.15174145 40 3
-0.69233072 -1.3849672 0.1901162 62 11
-0.43951735 -0.87884474 -0.12065066 5 4
-0.68765557 -1.374415 0.24341206 41 12
-0.42984724 -0.85875982 -0.084018134 16 5
-1.5000405 -2.9968193 0.65142196 57 13
-0.44982842 -0.8982864 -0.052649979 17 6
-1.5022099 -2.9985361 0.7742815 66 14
-0.69350833 -1.3836981 -0.027016325 53 7
-1.4936922 -2.9789374 0.89292574 64 15
-0.69837761 -1.3879659 0.027121039 66 8
-0.70070553 -1.3913827 0.081644095 61 9
-0.44505498 -0.88374043 -0.19233547 6 2
-0.69744647 -1.3843098 0.13561434 55 10
-0.43299845 -0.85905331 -0.15236719 44 3
-0.69090444 -1.3701346 0.18841003 61 11
-0.43989989 -0.87198824 -0.11991944 6 4
-0.69600916 -1.3790604 0.24466354 36 12
-0.43284249 -0.85725397 -0.084018134 15 5
-1.5582765 -3.0862007 0.67202932 126 13
-0.44935897 -0.88957989 -0.052231289 15 6
-1.5495827 -3.0663238 0.79317743 100 14
-0.70013887 -1.3848379 -0.027086135 54 7
-1.5529091 -3.0702436 0.9219135 100 15
-0.70502841 -1.389086 0.027190849 66 8
-0.69832164 -1.3746829 0.080806725 61 9
-0.44384372 -0.87335223 -0.19042738 27 2
-0.70522439 -1.3870722 0.13613726 56 10
-0.44330874 -0.87154621 -0.15487014 31 3
-0.70198274 -1.3801 0.1901162 63 11
-0.44024017 -0.86513978 -0.11918823 7 4
-0.7035073 -1.3819034 0.24560213 34 12
-0.43944895 -0.86283958 -0.084715381 15 5
-1.5749255 -3.0909643 0.67431903 58 13
-0.44808123 -0.87902987 -0.051707931 18 6
-1.5705494 -3.0797198 0.79812634 70 14
-0.7031514 -1.3788228 -0.027016325 56 7
-1.5662514 -3.0699658 0.92346638 60 15
-0.70829177 -1.3829329 0.027121039 68 8
-0.70699978 -1.3792235 0.08122541 60 9
-0.44151622 -0.86131507 -0.18813768 52 2
-0.70824367 -1.3810564 0.13578865 56 10
-0.44544661 -0.86823589 -0.15455727 38 3
-0.70612991 -1.3757519 0.18987246 61 11
-0.44340816 -0.86352038 -0.11918823 6 4
-0.70585972 -1.3740445 0.24466354 31 12
-0.43972692 -0.85598361 -0.084192447 13 5
-1.5848073 -3.0837021 0.67393738 26 13
-0.45753974 -0.88989419 -0.052440636 21 6
-1.5777247 -3.0672872 0.79632676 33 14
-0.70637041 -1.3726802 -0.026946515 54 7
-1.5783764 -3.0659227 0.92398405 23 15
-0.7131148 -1.380452 0.027121039 66 8
-0.71731359 -1.3873923 0.081853449 61 9
-0.44181511 -0.85453683 -0.18699282 89 2
-0.7084834 -1.3697274 0.1349171 55 10
-0.44665891 -0.86316681 -0.15393153 38 3
-0.71822894 -1.3873817 0.19182236 61 11
-0.45189726 -0.87254363 -0.12065066 5 4
-0.71156049 -1.3733261 0.2449764 28 12
-0.43996245 -0.84913635 -0.083669513 15 5
-1.5720712 -3.0328333 0.66401535 19 13
-0.46524051 -0.89715677 -0.052963994 16 6
-1.5740634 -3.0340841 0.7891283 26 14
-0.71484238 -1.3773056 -0.027086135 57 7
-1.573935 -3.0312481 0.9151842 17 15
-0.71608126 -1.3744075 0.027051231 64 8
-0.72375673 -1.3885481 0.082062788 60 9
-0.71786797 -1.3760782 0.13578865 56 10
-0.44509941 -0.85284632 -0.15236719 44 3
-0.71939236 -1.3778274 0.19084741 61 11
-0.45662576 -0.87455958 -0.12113813 5 4
-0.71976906 -1.3779625 0.24622789 22 12
-0.44661483 -0.85465872 -0.084366761 13 5
-1.5608186 -2.9855709 0.6548565 16 13
-0.46374121 -0.88667822 -0.052440636 20 6
-1.5714723 -3.0046721 0.7828297 19 14
-0.72126001 -1.3784711 -0.027155945 56 7
-1.5687479 -2.9969156 0.90638429 16 15
-0.72342461 -1.3773365 0.027155945 63 8
-0.72278291 -1.3755324 0.081434757 60 9
-0.72428203 -1.3772169 0.13613726 56 10
-0.45160422 -0.85835832 -0.15361866 34 3
-0.72025877 -1.3684078 0.18987246 60 11
-0.45767409 -0.86952746 -0.12065066 5 4
-0.73169762 -1.389551 0.24873082 12 12
-0.45223239 -0.8584612 -0.084889688 11 5
-1.5569806 -2.9543264 0.64913225 13 13
-0.4620215 -0.87630177 -0.051917274 15 6
-1.5596148 -2.9580727 0.77203202 16 14
-0.72769314 -1.3796092 -0.027225753 56 7
-1.562449 -2.9609425 0.89706683 15 15
-0.72985923 -1.3784646 0.027225753 61 8
-0.7292102 -1.3766577 0.081644095 59 9
-0.73257804 -1.3818488 0.13683452 56 10
-0.45815024 -0.86383671 -0.15487014 28 3
-0.72944474 -1.3747796 0.19109115 58 11
-0.45683336 -0.86099076 -0.1196757 6 4
-0.73259687 -1.3801377 0.24747935 7 12
-0.45320758 -0.8534376 -0.084541067 10 5
-1.5538738 -2.9248738 0.64378959 14 13
-0.47148636 -0.88711035 -0.052649979 17 6
-1.5566114 -2.9287932 0.76573336 16 14
-0.72850895 -1.3701259 -0.027086135 52 7
-1.5586505 -2.9301615 0.88930225 12 15
-0.73819274 -1.3830934 0.027365373 59 8
-0.73565292 -1.3777558 0.081853449 60 9
-0.45973402 -0.86064398 -0.18966414 3 2
-0.734339 -1.3741405 0.13631159 55 10
-0.46287498 -0.86579663 -0.15549587 30 3
-0.73680848 -1.3776045 0.19182236 60 11
-0.46062228 -0.86122155 -0.11991944 6 4
-1.5488943 -2.8947394 0.51998824 11 12
-0.45885608 -0.85719973 -0.085064009 8 5
-1.5524427 -2.8989365 0.63921016 14 13
-0.47442558 -0.88554192 -0.052649979 16 6
-1.5543517 -2.9012845 0.75988466 15 14
-0.73682678 -1.3747528 -0.027225753 52 7
-1.5555784 -2.9011409 0.88205534 12 15
-0.74230903 -1.3786176 0.027330469 64 8
-0.74283266 -1.3784373 0.082062788 60 9
-0.73653406 -1.3661784 0.13578865 50 10
-0.46135661 -0.85540122 -0.15393153 30 3
-0.73996735 -1.3714006 0.19133489 56 11
-0.46392596 -0.85944635 -0.11991944 6 4
-1.5524887 -2.8748655 0.51748526 15 12
-0.4544211 -0.84148735 -0.083669513 8 5
-1.5462598 -2.8621359 0.63234103 13 13
-0.48336589 -0.89433938 -0.053278007 17 6
-1.5543572 -2.8747246 0.75448585 15 14
-0.7421 -1.3719136 -0.027225753 52 7
-1.5519955 -2.8679619 0.87377316 12 15
-0.74425429 -1.370746 0.027225753 61 8
-0.75145435 -1.3828557 0.082481474 59 9
-0.75271767 -1.3846043 0.13788037 55 10
-0.46056461 -0.84684426 -0.15268005 33 3
-0.75044227 -1.3792714 0.1927973 45 11
-0.47261715 -0.86828309 -0.12138188 5 4
-1.5473996 -2.8416715 0.51247936 18 12
-0.4602142 -0.84514534 -0.084192447 8 5
-1.5449708 -2.8360326 0.62776166 13 13
-0.47979426 -0.8803708 -0.052545305 17 6
-1.5503898 -2.843617 0.74773729 15 14
-0.74879986 -1.3728256 -0.027295565 53 7
-1.5499669 -2.840482 0.86704385 11 15
-0.7528758 -1.3751558 0.027365373 59 8
-0.75051838 -1.3697147 0.081853449 59 9
-0.47358778 -0.86430943 -0.19157225 7 2
-0.75658864 -1.3802214 0.13770607 55 10
-0.46731719 -0.85215956 -0.15393153 28 3
-0.74856871 -1.3644608 0.19109115 43 11
-0.47277984 -0.86140746 -0.12065066 4 4
-1.5525559 -2.8275952 0.51091504 18 12
-0.46139026 -0.8399604 -0.083843827 7 5
-1.5397377 -2.8030906 0.62165576 14 13
-0.48286444 -0.8786906 -0.052545305 16 6
-1.5415303 -2.8040338 0.73873925 15 14
-0.75551438 -1.373708 -0.027365373 54 7
-1.544042 -2.8062804 0.858244 11 15
-0.75767112 -1.3725195 0.027365373 61 8
-0.75529504 -1.3670865 0.081853449 59 9
-0.75971413 -1.3739519 0.13735744 49 10
-0.47234973 -0.85389805 -0.15455727 25 3
-0.75813144 -1.3705246 0.19230984 42 11
-0.47578385 -0.85975188 -0.12065066 5 4
-1.5471082 -2.794507 0.50590914 16 12
-0.47204208 -0.85228807 -0.085238315 7 5
-1.5442922 -2.7871246 0.61936599 14 13
-0.4909232 -0.88564909 -0.053068664 15 6
-1.533841 -2.7659843 0.73019111 13 14
-0.76224452 -1.3745599 -0.027435182 53 7
-1.5416445 -2.7789125 0.8515147 10 15
-0.76756108 -1.3784686 0.027539898 58 8
-0.76297832 -1.369676 0.082167462 57 9
-0.76838624 -1.3782524 0.1380547 44 10
-0.47436535 -0.85051888 -0.15424441 23 3
-0.76992029 -1.3798714 0.19401602 48 11
-0.47699672 -0.85453558 -0.12016319 6 4
-1.5366346 -2.7528677 0.49933887 16 12
-0.47210008 -0.84541649 -0.084715381 6 5
-1.540607 -2.7577219 0.61402339 14 13
-0.49206293 -0.8804431 -0.052859318 16 6
-1.5358789 -2.7470062 0.72659194 12 14
-0.76508623 -1.3684 -0.027365373 52 7
-1.5324742 -2.739794 0.84116197 10 15
-0.77114916 -1.3741721 0.027504994 53 8
-0.77753508 -1.3844185 0.083214179 48 9
-0.77124012 -1.3720882 0.13770607 47 10
-0.48105484 -0.85582906 -0.15549587 20 3
-0.77449185 -1.3773106 0.19401602 9 11
-0.48761418 -0.86679006 -0.1221131 5 4
-1.5355775 -2.7285507 0.49589729 18 12
-0.47113836 -0.83681875 -0.084018134 6 5
-1.5333697 -2.723515 0.6075359 14 13
-0.49497992 -0.87880647 -0.052859318 17 6
-1.53637 -2.7266178 0.72254276 11 14
-0.77182209 -1.3692049 -0.027435182 50 7
-1.5287434 -2.7108698 0.833915 10 15
-0.77298743 -1.3662503 0.027400278 54 8
-0.78137857 -1.3799582 0.083109505 52 9
-0.47400096 -0.83711219 -0.18699282 30 2
-0.77971393 -1.3764573 0.13840331 49 10
-0.48111758 -0.84898889 -0.15455727 25 3
-0.79887486 -1.4091365 0.19889079 0 11
-0.49259549 -0.86853606 -0.12260057 6 4
-1.5294956 -2.6956844 0.49089143 31 12
-0.47882688 -0.84391624 -0.084889688 5 5
-1.5341443 -2.70278 0.6041013 39 13
-0.4931134 -0.86838937 -0.052335959 17 6
-1.5362529 -2.704294 0.71804374 25 14
-0.77857298 -1.3699796 -0.027504994 53 7
-1.5296035 -2.6904023 0.8292563 15 15
-0.78171462 -1.3704919 0.027539898 54 8
-0.78123993 -1.3685496 0.082586147 50 9
-0.48957315 -0.85761762 -0.19195385 37 2
-0.77858537 -1.3633467 0.13735744 48 10
-0.48309809 -0.84558916 -0.15424441 21 3
-0.49168268 -0.85991824 -0.12162561 4 4
-1.5437995 -2.6989028 0.49245578 55 12
-0.48572668 -0.84915763 -0.085586935 5 5
-1.5455203 -2.7008159 0.60486454 56 13
-0.49217254 -0.85972953 -0.051917274 8 6
-1.5418094 -2.6921508 0.71624416 37 14
-0.78732675 -1.3741938 -0.027644612 51 7
-1.5409069 -2.6883986 0.83029151 23 15
-0.78749067 -1.3694885 0.027574802 52 8
-0.78401995 -1.3623521 0.082376808 42 9
-0.78830999 -1.369254 0.13822901 14 10
-0.49196219 -0.85416824 -0.15612161 19 3
-1.5569322 -2.7021294 0.38291353 67 11
-0.49567294 -0.85991639 -0.12186935 6 4
-1.5551847 -2.6969199 0.49308151 59 12
-0.49082693 -0.85082322 -0.085935563 5 5
-1.554938 -2.695405 0.60486454 50 13
-0.50116056 -0.86838543 -0.052545305 14 6
-1.5560694 -2.6951907 0.7184937 36 14
-0.79311872 -1.3731689 -0.027679518 25 7
-1.5599469 -2.6997302 0.83546793 21 15
-1.5655142 -2.6984828 0.16349754 71 9
-0.48781374 -0.84050834 -0.18890092 0 2
-1.5756421 -2.7137575 0.27454057 60 10
-0.49508959 -0.85235935 -0.15612161 18 3
-1.5683491 -2.7001114 0.38340098 65 11
-0.49169007 -0.84616655 -0.12016319 6 4
-1.5645893 -2.6914749 0.49308151 59 12
-0.48978767 -0.8422153 -0.085238315 5 5
-1.5707302 -2.6998694 0.60715425 51 13
-0.50634909 -0.86999518 -0.052754648 9 6
-1.5698594 -2.6962054 0.72029328 30 14
-1.5595921 -2.6785717 -0.054102462 61 7
-1.5635266 -2.684253 0.83236206 15 15
-1.5743566 -2.6931093 0.054451507 49 8
-1.5789573 -2.699898 0.16391623 71 9
-1.574035 -2.6893265 0.27262318 59 10
-0.49706379 -0.8489213 -0.15580875 18 3
-1.5822482 -2.7011962 0.38437593 61 11
-0.50066066 -0.8547222 -0.12162561 5 4
-1.5779696 -2.6928141 0.49433297 60 12
-0.49373201 -0.84221941 -0.085412621 11 5
-1.5821313 -2.6977572 0.60791749 50 13
-0.51241499 -0.87339038 -0.053068664 16 6
-1.5817496 -2.6960275 0.72164297 23 14
-1.5831031 -2.6972561 -0.05459113 68 7
-1.5709306 -2.6754472 0.83132678 13 15
-1.5873384 -2.6947658 0.05459113 60 8
-1.592972 -2.7032506 0.16443959 72 9
-1.5910412 -2.6978209 0.27401763 60 10
-0.49485737 -0.83876163 -0.15424441 19 3
-1.5881703 -2.6908062 0.38364473 61 11
-0.50349236 -0.85305727 -0.12162561 4 4
-1.592917 -2.6977725 0.49621019 58 12
-0.49652216 -0.84057748 -0.085412621 18 5
-1.5830785 -2.6789739 0.60486454 49 13
-0.50819367 -0.85965115 -0.052335959 15 6
-1.5926647 -2.6941226 0.72254276 17 14
-1.6001822 -2.7057612 -0.054870363 66 7
-1.5876637 -2.6835241 0.83546793 11 15
-1.6034096 -2.7015247 0.054835461 65 8
-1.6013783 -2.6959565 0.16433492 71 9
-0.46020272 -0.77476162 -0.17516267 1 2
-1.6040497 -2.6993818 0.27471489 60 10
-0.50470191 -0.84900188 -0.15643448 19 3
-1.5950553 -2.6821122 0.38315722 59 11
-0.50037724 -0.84105855 -0.12016319 5 4
-1.604345 -2.6955905 0.49683592 57 12
-0.50134492 -0.84235048 -0.085761249 7 5
-1.5989845 -2.6855178 0.6075359 47 13
-0.5089975 -0.85452938 -0.052126616 11 6
-1.6020594 -2.6885467 0.72254276 15 14
-1.6116654 -2.7035942 -0.054940179 68 7
-1.6039476 -2.6895802 0.83909136 10 15
-1.6148839 -2.699343 0.054905269 72 8
-1.6087267 -2.6869233 0.16412558 71 9
-1.6196057 -2.7040212 0.27576074 64 10
-0.50360119 -0.84045714 -0.155183 14 3
-1.6125729 -2.6901491 0.38510716 59 11
-0.50943553 -0.84952146 -0.12162561 4 4
-1.6178094 -2.6967497 0.49808741 56 12
-0.50940704 -0.84913796 -0.086632803 3 5
-1.6144106 -2.6900198 0.60982555 40 13
-0.51403338 -0.85617203 -0.052335959 17 6
-1.6094278 -2.6795969 0.72164297 11 14
-1.619033 -2.6945236 -0.054870363 67 7
-1.6202931 -2.6955552 0.84271485 8 15
-1.6232634 -2.6919773 0.054870363 68 8
-1.6242887 -2.6915512 0.16475362 71 9
-0.5102331 -0.8454892 -0.19195385 22 2
-1.6218259 -2.6864119 0.27454057 60 10
-0.51470172 -0.85222149 -0.15768595 10 3
-1.6260598 -2.6912999 0.38608211 61 11
-0.51239765 -0.84773815 -0.12162561 4 4
-1.6261909 -2.6893957 0.49777454 58 12
-0.51354712 -0.84896994 -0.086807117 1 5
-1.6339521 -2.7011664 0.61364174 37 13
-0.52632523 -0.86975127 -0.053278007 15 6
-1.6238174 -2.6822979 0.72389251 10 14
-1.6305008 -2.6922767 -0.054940179 68 7
-1.6296926 -2.689883 0.84271485 7 15
-1.6347281 -2.689712 0.054940179 70 8
-1.6399008 -2.6961036 0.16538164 68 9
-0.50312316 -0.82684177 -0.18813768 14 2
-1.6358052 -2.6872573 0.27523783 61 10
-0.5157668 -0.84695506 -0.15706022 7 3
-1.6406062 -2.6940851 0.38730082 57 11
-0.519485 -0.85272533 -0.12260057 6 4
-1.6407088 -2.6921368 0.49933887 55 12
-0.50613564 -0.8301608 -0.085064009 1 5
-1.6428192 -2.6934836 0.61326015 33 13
-0.52534831 -0.86099654 -0.052859318 10 6
-1.6417596 -2.6896355 0.72749174 8 14
-1.6440555 -2.6933966 -0.055079795 67 7
-1.6390722 -2.6841779 0.84271485 6 15
-1.6445749 -2.6837027 0.054940179 70 8
-1.6534775 -2.6971741 0.16580033 70 9
-1.6545526 -2.6968148 0.27680662 64 10
-0.50528723 -0.82326305 -0.15299292 3 3
-1.651508 -2.6897454 0.38754454 58 11
-0.5163728 -0.84066677 -0.12113813 4 4
-1.6521634 -2.68976 0.49996459 58 12
-0.5111168 -0.83178389 -0.085412621 1 5
-1.6470702 -2.6793704 0.61135209 27 13
-0.52416569 -0.85235232 -0.052440636 13 6
-1.6542022 -2.6888671 0.72884142 7 14
-1.6555434 -2.6910472 -0.055149604 70 7
-1.6545072 -2.6883116 0.84582067 6 15
-1.6629198 -2.6935484 0.055254318 74 8
-1.6607828 -2.6879876 0.16559097 68 9
-0.51714092 -0.83666927 -0.19119063 1 2
-1.6608129 -2.6859391 0.27628368 60 10
-0.51840323 -0.83838433 -0.15612161 3 3
-1.6593744 -2.6825662 0.38730082 57 11
-0.52229148 -0.84401387 -0.12186935 6 4
-1.6677811 -2.6940539 0.50184184 56 12
-0.52031106 -0.84015805 -0.086458497 1 5
-1.6590471 -2.678901 0.61249691 22 13
-0.5196262 -0.83872461 -0.051707931 20 6
-1.66311 -2.6833668 0.72884142 5 14
-1.6754639 -2.7022476 -0.055498652 71 7
-1.6638813 -2.6825199 0.84582067 3 15
-1.6744248 -2.6911228 0.055324126 74 8
-1.6690998 -2.6804783 0.16548631 72 9
-1.6812987 -2.699019 0.27820113 64 10
-0.52863979 -0.84830511 -0.15831171 5 3
-1.6739792 -2.6851799 0.3885195 53 11
-0.52733546 -0.84555441 -0.12235683 6 4
-1.6792661 -2.6915677 0.50246757 54 12
-0.51993042 -0.8333568 -0.085935563 1 5
-1.6735859 -2.681421 0.61440504 18 13
-0.52466607 -0.84029406 -0.051917274 18 6
-1.675563 -2.6825037 0.73019111 3 14
-1.6785288 -2.6862071 -0.055289224 75 7
-1.6814263 -2.6898007 0.84996176 3 15
-1.6848707 -2.6869557 0.055359036 68 8
-1.6837547 -2.6830945 0.16600966 68 9
-1.6843538 -2.6830094 0.27715525 61 10
-0.53054714 -0.8447817 -0.15799882 5 3
-1.6886224 -2.6877248 0.3897382 51 11
-0.52711475 -0.83866632 -0.12162561 6 4
-1.6833941 -2.6773281 0.50090319 55 12
-0.51223105 -0.81466997 -0.084192447 0 5
-1.6902528 -2.6871955 0.61707634 13 13
-0.52546871 -0.83507663 -0.051707931 4 6
-1.6869929 -2.6799371 0.73109096 3 14
-1.6857635 -2.6769478 -0.055219412 70 7
-1.6949241 -2.6904531 0.8520323 2 15
-1.6963762 -2.6844389 0.055428844 66 8
-1.7005829 -2.6890166 0.16674237 66 9
-0.52992642 -0.83793682 -0.19271709 2 2
-1.6969047 -2.6821644 0.27767819 58 10
-0.53666204 -0.8479321 -0.15893744 2 3
-1.7043654 -2.6918766 0.3912006 46 11
-0.53110123 -0.83849823 -0.12186935 8 4
-1.6969587 -2.6781101 0.50215465 51 12
-0.5193373 -0.81960887 -0.084889688 0 5
-1.7017248 -2.6845953 0.61783957 12 13
-0.53372848 -0.84167087 -0.052231289 1 6
-1.7067764 -2.6904874 0.73558998 2 14
-1.7036697 -2.6845541 -0.055498652 68 7
-1.6980929 -2.6747348 0.84892654 2 15
-1.7035882 -2.6751277 0.055359036 68 8
-1.714252 -2.6898019 0.16716106 66 9
-1.7094703 -2.6812649 0.27820113 59 10
-0.52687168 -0.8260681 -0.155183 1 3
-1.707345 -2.6758707 0.3897382 46 11
-0.54256934 -0.85002548 -0.12381926 14 4
-1.7158648 -2.6871543 0.50497049 48 12
-0.51361692 -0.80435711 -0.0834952 1 5
-1.714256 -2.6836023 0.6189844 10 13
-0.54311609 -0.84990054 -0.052859318 0 6
-1.7214057 -2.692723 0.73783946 2 14
-1.7151849 -2.6819601 -0.055568464 70 7
-1.7199125 -2.6883187 0.85513818 2 15
-1.7204753 -2.6809456 0.055603366 65 8
-1.7279485 -2.6905231 0.16757976 67 9
-1.7242035 -2.6836627 0.27907267 57 10
-0.53829628 -0.83751798 -0.15768595 1 3
-1.722043 -2.6782429 0.39095688 42 11
-0.54123765 -0.84144819 -0.1228443 26 4
-1.7305789 -2.6894543 0.50653487 45 12
-0.52828091 -0.82098967 -0.085412621 1 5
-1.7204251 -2.6726496 0.61783957 9 13
-0.53310335 -0.82784903 -0.051603258 0 6
-1.7286841 -2.6834211 0.73693967 2 14
-1.7310357 -2.6860421 -0.055777889 72 7
-1.729286 -2.6822987 0.85513818 2 15
-1.7385104 -2.6883571 0.055882607 65 8
-1.7329886 -2.6777685 0.16716106 65 9
-0.53013843 -0.81915605 -0.18966414 0 2
-1.7422237 -2.6910071 0.28046718 57 10
-0.53692132 -0.82900172 -0.15643448 1 3
-1.736778 -2.6805458 0.39217559 35 11
-0.53769338 -0.82955909 -0.12138188 27 4
-1.7388816 -2.6817396 0.50622195 42 12
-0.54740298 -0.84421635 -0.088027291 1 5
-1.7350854 -2.6748638 0.61974764 7 13
-0.59904748 -0.92315751 -0.057674225 0 6
-1.7433459 -2.6855433 0.73918921 2 14
-1.7425796 -2.6833372 -0.055847701 67 7
-1.747058 -2.6892059 0.85927927 3 15
-1.7452328 -2.6792262 0.055812798 65 8
-1.7484032 -2.6820457 0.16778909 66 9
-1.754403 -2.6902215 0.28099012 57 10
-0.55261928 -0.84707004 -0.16018891 1 3
-1.7489123 -2.6797588 0.39290681 32 11
-0.55563456 -0.85104215 -0.12479421 7 4
-1.744524 -2.6709974 0.50528342 36 12
-0.52623028 -0.80569816 -0.084192447 0 5
-1.753611 -2.683887 0.62318224 6 13
-1.7543749 -2.6830091 0.740089 2 14
-1.747089 -2.6708505 -0.055708081 70 7
-1.7517351 -2.6769316 0.85720873 3 15
-1.760061 -2.6814766 0.055987321 66 8
-1.7599477 -2.6792648 0.16799843 66 9
-1.762688 -2.6824164 0.28081581 55 10
-0.537126 -0.81707472 -0.15487014 0 3
-1.7648002 -2.683589 0.39436921 25 11
-0.53350818 -0.81095451 -0.11918823 0 4
-1.7603526 -2.6747918 0.5071606 31 12
-0.53561145 -0.81384212 -0.085238315 0 5
-1.774845 -2.6957865 0.62738001 7 13
-1.7755231 -2.6947694 0.74503791 2 14
-1.763005 -2.674753 -0.055917513 72 7
-1.7589412 -2.6675754 0.8561734 3 15
-1.7661012 -2.6703126 0.055882607 63 8
-1.7781084 -2.686429 0.1688358 67 9
-1.776441 -2.6828923 0.28151307 50 10
-0.54215658 -0.81848842 -0.15549587 0 3
-1.7752535 -2.6790671 0.39461297 25 11
-0.57143342 -0.86203361 -0.12698787 0 4
-1.7762291 -2.6785085 0.50903779 29 12
-0.54285353 -0.81860936 -0.085935563 0 5
-1.7788171 -2.6813951 0.62547189 6 13
-1.7913858 -2.6982963 0.74773729 2 14
-1.7789683 -2.6785777 -0.056126937 68 7
-1.7767953 -2.6742914 0.86031455 5 15
-1.7820652 -2.6741159 0.056092035 65 8
-1.7852588 -2.6768825 0.16862647 67 9
-1.790218 -2.6833043 0.28221029 50 10
-0.57352197 -0.85931003 -0.16363046 0 3
-1.7801853 -2.6662505 0.39363801 22 11
-0.55459273 -0.83032048 -0.12260057 0 4
-1.7932504 -2.6837893 0.51122791 25 12
-1.8098015 -2.7085598 -0.28499928 1 5
-1.7936212 -2.6833303 0.62738001 5 13
-1.8129519 -2.7112257 -0.17092925 1 6
-1.7921257 -2.6790686 0.74413806 2 14
-1.794981 -2.6823227 -0.056336369 70 7
-1.7947164 -2.6809161 0.86445564 5 15
-1.7969625 -2.6761799 0.056266561 61 8
-1.7912501 -2.6656613 0.16831245 60 9
-1.8051313 -2.6853063 0.28308186 45 10
-1.5840466 -2.3555336 -0.44959271 1 3
-1.7972378 -2.6715493 0.3953442 17 11
-1.7079296 -2.5378387 -0.37560135 1 4
-1.8015046 -2.6758747 0.51091504 18 12
-1.8147943 -2.6956148 -0.28430203 13 5
-1.8095572 -2.6868234 0.62966973 4 13
-1.811245 -2.6883166 -0.16988252 10 6
-1.804734 -2.6776445 0.74548781 2 14
-1.799861 -2.6694088 -0.056196753 68 7
-1.8105454 -2.6842444 0.86756152 8 15
-1.8163773 -2.6847973 0.0565807 61 8
-1.8061428 -2.6676617 0.1688358 62 9
-1.5640621 -2.3101101 -0.54227924 3 2
-1.8144939 -2.6789889 0.28308186 42 10
-1.5700988 -2.3172832 -0.44333532 8 3
-1.8165762 -2.6800482 0.39753783 14 11
-1.6889262 -2.4907861 -0.36950788 7 4
-1.8097252 -2.6679351 0.51060218 14 12
-1.8186004 -2.6810193 -0.28343046 39 5
-1.8233343 -2.6869884 0.6311962 4 13
-1.820618 -2.681978 -0.16988252 25 6
-1.8162594 -2.6745527 0.7463876 3 14
-1.8114154 -2.6664183 -0.056266561 70 7
-1.8155606 -2.6715167 0.86549091 9 15
-1.8257387 -2.6784401 0.0565807 67 8
-1.8199452 -2.6679409 0.1692545 57 9
-1.5754349 -2.3095021 -0.54342401 8 2
-1.8215884 -2.6693475 0.28273323 37 10
-1.5714953 -2.3019993 -0.44145811 17 3
-1.8337564 -2.6851664 0.39924401 15 11
-1.7054492 -2.4963496 -0.37121406 11 4
-1.8257148 -2.671387 0.51247936 12 12
-1.8178304 -2.6598506 -0.28186166 49 5
-1.8338108 -2.6822281 0.63157779 3 13
-1.8412442 -2.6920922 -0.17092925 47 6
-1.8310864 -2.6762378 0.74863708 5 14
-1.8274888 -2.6699798 -0.056475986 71 7
-1.8237836 -2.6635692 0.86497331 11 15
-1.8316803 -2.6671062 0.056475986 61 8
-1.839429 -2.6763854 0.17019655 53 9
-1.5857116 -2.3072243 -0.54418731 9 2
-1.8331521 -2.6662564 0.28308186 30 10
-1.5806403 -2.2981279 -0.44177097 27 3
-1.8408685 -2.6754777 0.3987565 14 11
-1.7141528 -2.490381 -0.37121406 12 4
-1.8428707 -2.6763868 0.51466948 11 12
-1.8384035 -2.669899 -0.28360477 54 5
-1.8442762 -2.6774275 0.63195944 4 13
-1.8472304 -2.6807148 -0.17061524 58 6
-1.8492653 -2.6826656 0.75223631 8 14
-1.8413388 -2.6701694 -0.056615606 68 7
-1.8352641 -2.660367 0.86600858 11 15
-1.8523573 -2.6771402 0.056825034 63 8
-1.8510336 -2.6732326 0.17040588 50 9
-1.5937551 -2.3016753 -0.54418731 9 2
-1.8549275 -2.6778574 0.28499928 26 10
-1.5886527 -2.2925963 -0.44177097 34 3
-1.8501958 -2.6690359 0.3987565 13 11
-1.7205729 -2.4811196 -0.37072656 12 4
-1.8600836 -2.681299 0.51685953 10 12
-1.8533902 -2.6716504 -0.28447634 54 5
-1.8603262 -2.6806512 0.63424915 5 13
-1.8554376 -2.6726096 -0.17051056 59 6
-1.8641765 -2.6841972 0.75448585 11 14
-1.8552121 -2.6702943 -0.056755226 67 7
-1.8544623 -2.6682215 0.87066728 12 15
-1.8674088 -2.6788607 0.05699956 61 8
-1.8626393 -2.6700313 0.17061524 45 9
-1.5961636 -2.2880473 -0.54227924 9 2
-1.8665441 -2.674634 0.28534791 21 10
-1.6011688 -2.2935157 -0.44302243 32 3
-1.8629118 -2.6674433 0.39948773 12 11
-1.7246752 -2.46859 -0.36975163 13 4
-1.8682994 -2.6731708 0.51654667 9 12
-1.8706934 -2.6765964 -0.28569651 52 5
-1.8775475 -2.6854036 0.63692045 6 13
-1.8670442 -2.6693902 -0.17071991 61 6
-1.8668312 -2.6680939 0.75178647 11 14
-1.8645219 -2.6638024 -0.056755226 71 7
-1.865981 -2.6648967 0.87170261 16 15
-1.883644 -2.6821442 0.057208989 65 8
-1.8795202 -2.6752796 0.17134793 40 9
-1.6041406 -2.2824616 -0.54227924 9 2
-1.8804528 -2.6746216 0.28604513 15 10
-1.6159835 -2.2976069 -0.44489968 30 3
-1.8802071 -2.6722891 0.40119389 12 11
-1.7355667 -2.4658012 -0.37023908 13 4
-1.8782908 -2.668576 0.51685953 7 12
-1.875437 -2.6635339 -0.28499928 52 5
-1.8914316 -2.6852539 0.63844693 6 13
-1.8878552 -2.6791832 -0.17176662 63 6
-1.8806249 -2.6679318 0.75358605 15 14
-1.8779538 -2.6641426 -0.056894846 68 7
-1.8714672 -2.6539583 0.87014967 16 15
-1.8809811 -2.6595566 0.05685994 57 8
-1.892309 -2.6735933 0.17166196 36 9
-1.6132327 -2.2784505 -0.54266083 9 2
-1.8874742 -2.6647894 0.28569651 13 10
-1.6190268 -2.2857878 -0.44364822 28 3
-1.8947966 -2.6741378 0.40241259 12 11
-1.7483261 -2.4665103 -0.37121406 12 4
-1.8898797 -2.665226 0.51748526 7 12
-1.8881813 -2.6618462 -0.28552222 54 5
-1.9025977 -2.6821694 0.63921016 9 13
-1.9036644 -2.6826811 -0.17239466 58 6
-1.8951013 -2.6696262 0.75583553 23 14
-1.8965037 -2.6706145 -0.057174087 66 7
-1.8796018 -2.645834 0.86963201 26 15
-1.9030169 -2.6708896 0.057243895 58 8
-1.9058015 -2.6738088 0.17208064 31 9
-1.6241988 -2.2778835 -0.54380566 9 2
-1.8997719 -2.6633821 0.28621945 12 10
-1.6235536 -2.2752984 -0.44270959 27 3
-1.9064265 -2.6707392 0.4029001 12 11
-1.7615397 -2.4668543 -0.37218902 11 4
-1.9124832 -2.6782353 0.5212397 7 12
-1.9016306 -2.662055 -0.28621945 55 5
-1.9130903 -2.6771092 0.63959181 10 13
-1.9118558 -2.6743948 -0.17228998 65 6
-1.9044086 -2.6629949 0.75583553 39 14
-1.9100025 -2.6708169 -0.057313703 70 7
-1.8984812 -2.6537275 0.87429082 30 15
-1.9211898 -2.6775622 0.057523135 63 8
-1.9209478 -2.6752517 0.17260399 31 9
-1.6401573 -2.2833624 -0.54647696 8 2
-1.9264969 -2.681004 0.28883412 15 10
-1.6368536 -2.2779229 -0.44427395 28 3
-1.9199072 -2.6708498 0.40387502 17 11
-1.7662334 -2.4561644 -0.37145779 10 4
-1.927588 -2.6795609 0.52280408 12 12
-1.9260405 -2.6764243 -0.2884855 77 5
-1.9219575 -2.6707504 0.63959181 14 13
-1.9230478 -2.6712821 -0.17249933 76 6
-1.9314504 -2.6819665 0.76303399 42 14
-1.9263271 -2.6738687 -0.057523135 76 7
-1.91451 -2.6564877 0.87739658 46 15
-1.9293538 -2.6692183 0.057488225 84 8
-1.9326156 -2.6717663 0.17281334 57 9
-1.6408169 -2.2683661 -0.54418731 8 2
-1.9447209 -2.6875138 0.29022861 47 10
-1.6471112 -2.2753956 -0.44489968 29 3
-1.9280543 -2.6625237 0.4036313 32 11
-1.7724671 -2.4467688 -0.37097031 10 4
-1.9299748 -2.6632187 0.52092683 32 12
-1.9337361 -2.6684091 -0.28831118 78 5
-1.9266591 -2.6576669 0.63806528 9 13
-1.9405686 -2.6758709 -0.17323203 90 6
-1.93279 -2.6641667 0.75988466 34 14
-1.9286017 -2.6574175 -0.057313703 87 7
-1.931716 -2.6607318 0.88102001 82 15
-1.9445442 -2.6705506 0.057662752 66 8
-1.926639 -2.6440206 0.17145261 18 9
-1.6521931 -2.267385 -0.54533213 7 2
-1.9411796 -2.6629989 0.28831118 10 10
-1.6573722 -2.272824 -0.44552541 28 3
-1.9408462 -2.6605887 0.4043625 31 11
-1.7786564 -2.43736 -0.37048283 10 4
-1.9369303 -2.6532748 0.5203011 11 12
-1.9359906 -2.6519876 -0.28726533 63 5
-1.908136 -2.612874 0.62890649 3 13
-1.9475404 -2.6658556 -0.17302269 72 6
-1.9443777 -2.6605504 0.76078445 22 14
-1.9449474 -2.6603551 -0.057523135 75 7
-1.9375707 -2.6492946 0.87946719 67 15
-1.9396617 -2.6443975 0.057243895 55 8
-1.9571297 -2.66626 0.17333671 21 9
-1.6566126 -2.256856 -0.54418731 7 2
-1.9410301 -2.6433587 0.2869167 11 10
-1.6664647 -2.2686174 -0.44583827 26 3
-1.9430683 -2.6442003 0.4029001 23 11
-1.7965603 -2.4439316 -0.37243277 7 4
-1.9543715 -2.6576376 0.52249116 7 12
-1.9303486 -2.6240106 -0.28499928 68 5
-1.9184079 -2.607779 0.62928808 3 13
-1.9520993 -2.6526062 -0.17260399 75 6
-1.9374782 -2.6317761 0.75448585 63 14
-1.9447353 -2.6406684 -0.057243895 76 7
-1.9330565 -2.6238508 0.87325549 70 15
-1.9524457 -2.6424356 0.057348609 57 8
-1.9593002 -2.6497767 0.17270868 13 9
-1.6742133 -2.263396 -0.5472402 7 2
-1.9530754 -2.6394303 0.28726533 8 10
-1.6712425 -2.257731 -0.44489968 25 3
-1.9522864 -2.6374013 0.4029001 19 11
-1.8180745 -2.4551942 -0.37511387 2 4
-1.9537317 -2.6364651 -0.28709102 64 5
-1.9501673 -2.6306963 0.63653886 13 13
-1.9618087 -2.6454337 -0.17260399 75 6
-1.9529167 -2.6324825 0.75673532 67 14
-1.958707 -2.6402876 -0.057383511 76 7
-1.9525647 -2.6310499 0.87791425 72 15
-1.9657001 -2.6400733 0.057453319 55 8
-1.9678054 -2.640976 0.17260399 11 9
-1.6832769 -2.2591126 -0.54762185 6 2
-1.9658488 -2.6373889 0.28778824 7 10
-1.682656 -2.2566345 -0.44583827 25 3
-1.8033177 -2.4166949 -0.37023908 2 4
-1.9875185 -2.66258 0.52624559 3 12
-1.9676894 -2.6360159 -0.28778824 68 5
-1.9781334 -2.6490414 0.64264476 30 13
-1.9710304 -2.6385698 -0.17260399 72 6
-1.9714255 -2.6381383 0.76033455 68 14
-1.9755547 -2.6427009 -0.057592943 78 7
-1.9633523 -2.625422 0.87843186 75 15
-1.9833026 -2.6443939 0.057697657 52 8
-1.9782113 -2.6356883 0.17270868 10 9
-1.6887954 -2.2500825 -0.54685861 6 2
-1.9786321 -2.6352909 0.28831118 2 10
-1.6928954 -2.253906 -0.446464 26 3
-1.9031398 -2.532903 0.38900697 2 11
-1.8236696 -2.4262533 -0.37267649 1 4
-1.9837421 -2.6382587 0.52280408 10 12
-1.9840635 -2.6386862 -0.28883412 65 5
-1.9838274 -2.637414 0.64149988 32 13
-1.9850322 -2.6380572 -0.17302269 73 6
-1.9782785 -2.6281269 0.75943476 70 14
-1.984767 -2.6357892 -0.057592943 76 7
-1.9794784 -2.6278114 0.88153768 82 15
-1.9997537 -2.647028 0.057907082 50 8
-1.9946266 -2.6383262 0.17333671 8 9
-1.6978235 -2.2457397 -0.5472402 5 2
-1.7067121 -2.2558596 -0.44802836 25 3
-2.0018182 -2.6449587 0.40728739 10 11
-1.8225418 -2.4072118 -0.37072656 2 4
-1.9941318 -2.6328926 0.52311689 11 12
-1.9956679 -2.6349208 -0.28918275 68 5
-2.0036922 -2.6445563 0.64493442 41 13
-2.0099125 -2.6518047 -0.17438343 69 6
-1.9886178 -2.6227582 0.75988466 77 14
-1.9987893 -2.6352179 -0.05773256 75 7
-1.9863038 -2.6178079 0.88050246 81 15
-2.0029268 -2.6320746 0.05773256 41 8
-2.0171342 -2.6488259 0.1744881 2 9
-1.7151679 -2.2522948 -0.55029315 5 2
-2.0392394 -2.6768842 0.29441211 1 10
-1.7157733 -2.2514594 -0.44834125 25 3
-2.0110388 -2.637955 0.40728739 19 11
-1.8152844 -2.3803153 -0.36755794 3 4
-2.0081029 -2.6321981 0.52436841 11 12
-2.0048532 -2.6279385 -0.28918275 67 5
-2.0117202 -2.6359854 0.64455283 49 13
-2.0203688 -2.6463597 -0.1744881 78 6
-2.0131373 -2.6359339 0.76573336 79 14
-2.017688 -2.6409369 -0.0580118 71 7
-2.0024681 -2.6200678 0.88360828 82 15
-2.010885 -2.6234806 0.057697657 25 8
-1.7206297 -2.2431786 -0.54952991 5 2
-2.0097585 -2.6191683 0.28883412 3 10
-1.7127968 -2.2313535 -0.44552541 25 3
-2.0311155 -2.6450889 0.40948102 30 11
-1.8296288 -2.3818355 -0.36877668 6 4
-2.0269082 -2.6377032 0.52687138 12 12
-2.0237267 -2.6335628 -0.29057723 77 5
-2.0185161 -2.6258337 0.64378959 51 13
-2.0283766 -2.6377082 -0.17438343 67 6
-2.0294554 -2.6381581 0.7684328 79 14
-2.0342116 -2.6433861 -0.058221228 72 7
-2.017494 -2.6207159 0.88619649 85 15
-1.8587213 -2.4075093 0.053090218 10 8
-2.0282502 -2.6251967 0.17386007 1 9
-1.7356509 -2.2464807 -0.55181968 4 2
-2.0396018 -2.638936 0.2917974 3 10
-1.7278249 -2.2347379 -0.44740263 25 3
-2.0354779 -2.6317027 0.4085061 34 11
-1.831858 -2.367584 -0.36755794 7 4
-2.0385211 -2.6337359 0.52749711 12 12
-2.032907 -2.6264827 -0.29057723 77 5
-2.0312757 -2.6234288 0.64493442 54 13
-2.0424638 -2.6369276 -0.17480211 75 6
-2.0350711 -2.6264367 0.76708305 86 14
-2.050777 -2.6457522 -0.058430657 55 7
