# .PCD v0.7 - Point Cloud Data file format
VERSION 0.7
FIELDS x y z intensity t reflectivity ring ambient range
SIZE 4 4 4 4 4 2 1 2 4
TYPE F F F F U U U U U
COUNT 1 1 1 1 1 1 1 1 1
WIDTH 833
HEIGHT 1
VIEWPOINT 0 0 0 1 0 0 0
POINTS 833
DATA ascii
0.56734711 -1.8511595 -0.51071805 241 71034890 55 43 381 2013
0.55929875 -1.8656532 -0.51402366 233 71130520 53 43 380 2025
0.55082273 -1.8791951 -0.51705384 219 71230190 50 43 393 2036
0.54273236 -1.8945507 -0.52063495 235 71325570 54 43 378 2049
0.53291559 -1.9043241 -0.52256322 245 71423980 56 43 413 2056
0.52249122 -1.9121938 -0.52394056 236 71521250 54 43 365 2061
0.51298368 -1.9237218 -0.52641976 220 71617420 50 43 406 2070
0.50335431 -1.9352047 -0.52889901 232 71716730 53 43 399 2079
0.49502495 -1.9522315 -0.53303105 242 71812110 56 43 376 2094
0.48581177 -1.9664292 -0.53633672 238 71912330 55 43 419 2106
0.47531536 -1.9759146 -0.53826499 233 72005740 40 43 400 2113
0.46581963 -1.9900241 -0.5415706 257 72106050 44 43 403 2125
0.45488441 -1.9984679 -0.54322344 254 72201970 43 43 417 2131
0.44407135 -2.0077908 -0.54515171 219 72300810 37 43 415 2138
0.43316093 -2.017056 -0.54707998 219 72397580 37 43 423 2145
0.42235023 -2.0272036 -0.54928374 222 72494830 38 43 403 2153
0.41200408 -2.0401204 -0.55231392 195 72593070 33 43 391 2164
0.40225595 -2.0567596 -0.55644596 163 72690020 28 43 388 2179
0.39070463 -2.0648558 -0.55809879 147 72788850 25 43 385 2185
0.37785396 -2.0662687 -0.5578233 121 72884390 20 43 351 2184
0.36651069 -2.0761206 -0.56002706 76 72984730 13 43 347 2192
0.35554656 -2.0887537 -0.56305724 105 73079620 18 43 369 2203
0.34350425 -2.0956388 -0.56443459 124 73179200 21 43 377 2208
0.33244309 -2.1091008 -0.5677402 130 73275450 22 43 385 2220
0.32180756 -2.126307 -0.57214773 112 73375080 19 43 357 2236
0.31083468 -2.1425104 -0.57627976 126 73472370 21 43 384 2251
0.29967496 -2.1586587 -0.58041185 120 73569810 20 43 350 2266
0.28845569 -2.175703 -0.58481932 125 73668430 21 43 391 2282
0.27667508 -2.1898293 -0.58840042 122 73764610 21 43 352 2295
0.26703742 -2.2229803 -0.59749097 85 73863100 11 43 384 2328
0.2537207 -2.227442 -0.59831733 114 73959040 15 43 383 2331
0.24046281 -2.2327797 -0.59941924 120 74059260 16 43 420 2335
0.22783278 -2.2447329 -0.60244942 133 74154660 18 43 369 2346
0.21488144 -2.2547009 -0.60492861 147 74253530 20 43 401 2355
0.20207416 -2.2674663 -0.60823423 156 74351170 21 43 413 2367
0.18911828 -2.2801592 -0.6115399 156 74450510 21 43 399 2379
0.17660771 -2.3004456 -0.61704928 205 74547350 28 43 411 2399
0.1631722 -2.3110747 -0.61980397 206 74645260 28 43 374 2409
0.14992498 -2.3264215 -0.623936 219 74744230 30 43 400 2424
0.13666515 -2.3445714 -0.62889445 220 74840230 30 43 406 2442
0.12303625 -2.3597653 -0.63302654 226 74940320 30 43 363 2457
0.10944978 -2.3796813 -0.63853592 242 75033960 33 43 357 2477
0.095545784 -2.3975976 -0.64349437 198 75134800 27 43 344 2495
0.081360087 -2.4135106 -0.64790189 210 75229890 24 43 377 2511
0.066982687 -2.4293392 -0.65230936 200 75328960 23 43 368 2527
0.052329384 -2.4412372 -0.65561503 211 75427350 24 43 361 2539
0.037425637 -2.4463184 -0.65699238 190 75524930 21 43 385 2544
0.022311427 -2.4359281 -0.65396219 259 75623200 29 43 431 2533
0.0070302156 -2.343734 -0.6275171 275 75721230 37 43 463 2437
-0.007302457 -2.3245068 -0.62200773 230 75819650 31 43 383 2417
-0.02155691 -2.323457 -0.62173223 248 75916240 33 43 415 2416
-0.035997745 -2.3357768 -0.62531334 184 76015470 25 43 395 2429
-0.051515684 -2.3922167 -0.6415661 225 76110040 30 43 371 2488
-0.066479169 -2.402426 -0.64459622 235 76210730 27 43 393 2499
-0.081506059 -2.41062 -0.64707547 251 76305710 28 43 380 2508
-0.096069023 -2.4043112 -0.64542264 264 76405530 30 43 437 2502
-0.11081979 -2.4036763 -0.64542264 238 76502170 27 43 407 2502
-0.12497138 -2.3914309 -0.64211702 222 76601160 30 43 366 2490
-0.13953163 -2.3886995 -0.6415661 232 76698620 31 43 398 2488
-0.15136321 -2.3436685 -0.62889445 169 76795490 23 43 367 2442
-0.16674952 -2.3570797 -0.63302654 183 76894120 25 43 361 2457
-0.18055099 -2.3473856 -0.63054729 162 76990060 22 43 373 2448
-0.1988223 -2.3931785 -0.64404529 103 77089000 11 43 407 2497
-0.19262095 -2.1563549 -0.57627976 55 77184420 9 43 366 2251
-0.20494087 -2.1455622 -0.57352507 62 77284180 10 43 344 2241
-0.21761878 -2.1394823 -0.57214773 74 77380170 12 43 361 2236
-0.22910236 -2.1228132 -0.5677402 55 77479030 9 43 366 2220
-0.24060634 -2.107995 -0.56388366 64 77575990 11 43 336 2206
-0.25479263 -2.1169786 -0.56691384 52 77672800 9 43 353 2217
-0.26873797 -2.1230056 -0.56911755 37 77771740 6 43 374 2225
-0.28125572 -2.1175046 -0.56801569 42 77867460 7 43 356 2221
-0.29542911 -2.1243091 -0.57049489 41 77967050 7 43 360 2230
-0.30887088 -2.1253107 -0.57132131 30 78060980 5 43 367 2233
-0.32692626 -2.1566446 -0.58096278 13 78159670 2 43 304 2268
-0.33925739 -2.1489 -0.57930994 15 78255780 2 43 320 2262
-0.35181603 -2.1429832 -0.57820809 12 78354800 2 43 341 2258
-0.36431482 -2.1369932 -0.57710618 12 78450770 2 43 339 2254
-0.3760865 -2.1271436 -0.57490242 15 78548570 2 43 333 2246
-0.3905116 -2.1323614 -0.57710618 23 78646390 4 43 385 2254
-0.40019983 -2.1119773 -0.57187229 15 78743700 2 43 347 2235
-0.41094163 -2.0981598 -0.56856662 25 78841870 4 43 337 2223
-0.42076936 -2.0805211 -0.5641591 29 78939250 5 43 382 2207
-0.44018078 -2.1099002 -0.57352507 10 79038690 1 43 370 2241
-0.44969374 -2.0911803 -0.56884211 23 79134510 4 43 344 2224
-0.4608587 -2.0808721 -0.56663835 20 79234200 3 43 342 2216
-0.47234011 -2.0723805 -0.56498551 10 79328030 1 43 343 2210
-0.48679695 -2.076932 -0.56718928 19 79427920 3 43 366 2218
-0.49773586 -2.0664282 -0.56498551 13 79524160 2 43 371 2210
-0.51201725 -2.0698686 -0.56691384 18 79622950 3 43 344 2217
-0.52329254 -2.0610964 -0.56526101 15 79720810 2 43 340 2211
-0.53907061 -2.0699425 -0.56884211 12 79817250 2 43 338 2224
-0.54978269 -2.0591643 -0.56663835 18 79917540 3 43 346 2216
-0.56417835 -2.0622442 -0.56856662 18 80013010 3 43 338 2223
-0.57475168 -2.0513368 -0.56636286 20 80112840 3 43 357 2215
-0.58785641 -2.0496202 -0.56691384 14 80208830 2 43 370 2217
-0.59718078 -2.0349033 -0.56360817 16 80308040 2 43 358 2205
-0.6110341 -2.0358055 -0.56498551 22 80403840 3 43 359 2210
-0.61563581 -2.0062799 -0.55727237 11 80503900 2 43 314 2182
-0.62936956 -2.0070519 -0.55864972 12 80600540 2 43 340 2187
-0.63962436 -1.9967426 -0.55672145 9 80698000 1 43 353 2180
-0.65753061 -2.010144 -0.56195539 21 80796690 3 43 359 2199
-0.66134477 -1.9805348 -0.55424219 11 80893230 2 43 335 2171
-0.67286575 -1.9746193 -0.55369127 13 80992790 2 43 365 2169
-0.68906426 -1.9822606 -0.55727237 16 81089450 2 43 363 2182
-0.69672614 -1.9653072 -0.55341583 17 81189420 3 43 332 2168
-0.71235937 -1.9709425 -0.55644596 25 81284000 4 43 364 2179
-0.71946436 -1.9530003 -0.55231392 14 81382950 2 43 356 2164
-0.73177135 -1.9494492 -0.55258942 11 81480080 2 43 362 2165
-0.74920273 -1.9592927 -0.55699688 22 81579140 3 43 360 2181
-0.76573753 -1.966307 -0.56057799 35 81676280 6 43 346 2194
-0.76894528 -1.9392248 -0.55369127 21 81773620 3 43 340 2169
-0.78909111 -1.9549788 -0.56002706 30 81872990 5 43 344 2192
-0.80362439 -1.9563265 -0.56195539 25 81969500 4 43 347 2199
-0.82338536 -1.9699901 -0.5677402 42 82069260 7 43 396 2220
-0.84071511 -1.9772897 -0.5715968 47 82164410 8 43 372 2234
-0.84597427 -1.9562072 -0.56663835 38 82265320 6 43 326 2216
-0.84482461 -1.9210513 -0.55727237 25 82359860 4 43 341 2182
-0.8526783 -1.9070528 -0.55451769 19 82459420 3 43 358 2172
-0.8611865 -1.8947815 -0.55231392 17 82555940 3 43 339 2164
-0.87561405 -1.8955725 -0.55424219 25 82654540 4 43 350 2171
-0.88600504 -1.8875526 -0.55341583 26 82751390 4 43 359 2168
-0.89550418 -1.8777409 -0.55203843 28 82848670 4 43 365 2163
-0.90575337 -1.8696145 -0.55121207 30 82946710 5 43 332 2160
-0.92483675 -1.8795528 -0.55617052 36 83043320 6 43 382 2178
-0.93635207 -1.8738427 -0.55617052 38 83142760 6 43 335 2178
-0.98562258 -1.9426713 -0.58013636 57 83237100 9 43 369 2265
-1.0093939 -1.9596691 -0.58757401 59 83337310 10 43 330 2292
-1.0374144 -1.9841173 -0.59749097 92 83432760 12 43 408 2328
-0 -0 -0 87 83531650 11 43 336 0
-1.0493916 -1.9483774 -0.59005326 131 83629310 22 43 397 2301
-0 -0 -0 103 83726720 14 43 419 0
-1.0736879 -1.9361941 -0.59032875 134 83823390 23 43 391 2302
-1.0855479 -1.9295696 -0.59032875 150 83920220 25 43 419 2302
-1.0997468 -1.9270486 -0.5917061 150 84018860 20 43 371 2307
-1.1101071 -1.9177675 -0.59087968 170 84115600 23 43 378 2304
-1.1218534 -1.9109199 -0.59087968 182 84215890 24 43 365 2304
-1.1374872 -1.910611 -0.59308344 145 84310150 19 43 372 2312
-1.1501817 -1.9052422 -0.59363437 149 84409820 20 43 377 2314
-1.1598451 -1.894868 -0.59253252 150 84505650 20 43 400 2310
-1.1623356 -1.8730071 -0.58757401 166 84604120 28 43 382 2292
-1.1692041 -1.8585136 -0.58509481 153 84700780 26 43 389 2283
-1.1728407 -1.8391415 -0.58096278 137 84799940 23 43 350 2268
-1.1778476 -1.8222182 -0.5776571 148 84898190 25 43 395 2256
-1.1811126 -1.8028896 -0.57352507 164 84994420 28 43 377 2241
-1.1921527 -1.7956085 -0.57352507 149 85093560 25 43 408 2241
-1.2015398 -1.7858659 -0.57269865 151 85188400 26 43 361 2238
-1.210852 -1.7760758 -0.57187229 140 85288370 24 43 406 2235
-1.2200896 -1.7662388 -0.57104588 142 85383470 24 43 409 2232
-1.229252 -1.7563554 -0.57021946 137 85483620 23 43 339 2229
-1.2400056 -1.7487798 -0.57021946 147 85581700 25 43 353 2229
-1.2490317 -1.7387949 -0.56939304 133 85679810 22 43 337 2226
-1.2579819 -1.7287652 -0.56856662 122 85776130 21 43 370 2223
-1.2697054 -1.7225623 -0.56911755 133 85873940 22 43 404 2225
-1.2796764 -1.7139684 -0.56884211 103 85972010 17 43 382 2224
-1.2895898 -1.705317 -0.56856662 119 86068520 20 43 368 2223
-1.300029 -1.6973722 -0.56856662 106 86168160 18 43 350 2223
-1.3098308 -1.6886034 -0.56829119 107 86264200 18 43 351 2222
-1.3207606 -1.681291 -0.56856662 131 86364210 22 43 369 2223
-1.3310519 -1.6731553 -0.56856662 108 86459430 18 43 385 2223
-1.3437034 -1.6679527 -0.56966853 110 86559740 19 43 336 2227
-1.3496624 -1.6544594 -0.5677402 86 86656360 14 43 381 2220
-1.3451074 -1.6283492 -0.56112897 67 86754790 11 43 368 2196
-1.3624685 -1.6289188 -0.56443459 90 86852400 15 43 357 2208
-1.3711962 -1.6190602 -0.56388366 97 86950220 16 43 364 2206
-1.3617216 -1.5879805 -0.5553441 74 87048260 12 43 377 2175
-1.3531775 -1.5585316 -0.54735547 63 87144500 10 43 348 2146
-1.3532023 -1.5393625 -0.54322344 45 87243960 7 43 382 2131
-1.3638995 -1.5324676 -0.54377437 31 87338600 5 43 390 2133
-1.3694189 -1.5197823 -0.54212153 20 87438360 3 43 350 2127
-1.3806604 -1.513483 -0.54294795 36 87533720 6 43 344 2130
-1.3957864 -1.5113431 -0.5454272 43 87632790 7 43 361 2139
-1.4227465 -1.5217221 -0.55286485 69 87729980 11 43 367 2166
-1.4479049 -1.5297306 -0.55947614 86 87827490 14 43 362 2190
-1.4652393 -1.5291523 -0.56278175 91 87925050 15 43 365 2202
-1.4645615 -1.5097759 -0.55864972 81 88022720 14 43 365 2187
-1.4886056 -1.5158608 -0.56471008 94 88122600 16 43 383 2209
-1.4978787 -1.5066984 -0.56471008 93 88217890 16 43 348 2209
-1.4355426 -1.4262853 -0.53578573 45 88318110 10 43 326 2104
-1.404502 -1.3783672 -0.51980853 9 88412670 2 43 308 2046
-1.388103 -1.3456169 -0.50989163 45 88513160 10 43 358 2010
-1.3699683 -1.3117899 -0.49942377 39 88609180 9 43 341 1972
-1.336816 -1.2643538 -0.48317108 45 88707510 12 43 372 1913
-1.2841824 -1.1996413 -0.45948067 31 88804470 8 43 370 1827
-1.2745763 -1.1760793 -0.45286942 29 88901340 8 43 354 1803
-1.26544 -1.153329 -0.44653362 26 88998860 7 43 322 1780
-1.2353698 -1.112066 -0.43220919 18 89095560 5 43 321 1728
-1.1732572 -1.0430834 -0.4057641 7 89194300 2 43 347 1632
-0 -0 -0 3 89289590 0 43 338 0
-0 -0 -0 6 89390630 0 43 353 0
-0 -0 -0 6 89485220 0 43 337 0
-0 -0 -0 7 89585380 0 43 360 0
-0.95629323 -0.79865056 -0.31293085 7 89681700 2 43 346 1295
-0 -0 -0 5 89780810 0 43 345 0
-0 -0 -0 4 89877820 0 43 344 0
-0 -0 -0 5 89975270 0 43 292 0
-0 -0 -0 4 90073150 0 43 351 0
-0 -0 -0 4 90170470 0 43 355 0
-0 -0 -0 5 90269160 0 43 362 0
-0 -0 -0 4 90363670 0 43 334 0
-0 -0 -0 4 90464360 0 43 316 0
-7.0515285 -5.2676411 -2.4781218 8 90558970 2 43 354 9155
-7.0844908 -5.2248454 -2.4783971 7 90658290 2 43 352 9156
-0 -0 -0 5 90754220 0 43 323 0
-0 -0 -0 5 90852060 0 43 334 0
-0 -0 -0 6 90949220 0 43 348 0
-0 -0 -0 8 91046940 0 43 381 0
-0 -0 -0 5 91145330 0 43 349 0
-0 -0 -0 4 91241420 0 43 373 0
-5.3695011 -3.6142244 -1.8106589 4 91341450 0 43 354 6732
-0.54450053 -0.36009631 -0.14296614 9 91436460 1 43 358 678
-0.52499479 -0.34251574 -0.13552846 21 91537110 2 43 361 651
-0.53112209 -0.34189898 -0.1369058 25 91632170 2 43 341 656
-0.50647008 -0.32156482 -0.12781531 60 91731530 6 43 356 623
-0.51656818 -0.32357368 -0.13056999 38 91828120 4 43 323 633
-0.51446098 -0.31786171 -0.12919265 28 91925360 3 43 327 628
-0.51312292 -0.31269011 -0.12809077 39 92023050 4 43 338 624
-0.51585466 -0.31003296 -0.12836625 52 92120510 5 43 373 625
-0.51361835 -0.30440122 -0.1269889 49 92219080 5 43 351 620
-0.51299006 -0.29978281 -0.12616248 37 92315290 4 43 315 617
-0.51481986 -0.29662952 -0.12616248 52 92415570 5 43 328 617
-0.49910152 -0.28345111 -0.12037763 42 92510390 4 43 367 596
-0 -0 -0 5 92610310 0 43 359 0
-0.49329692 -0.27217272 -0.11734746 22 92706420 2 43 375 585
-0.48483759 -0.26360387 -0.11404183 23 92804150 1 43 349 573
-0.44836903 -0.24009384 -0.10164569 56 92901420 3 43 360 528
-0.43879762 -0.23147485 -0.098064594 62 92998610 3 43 328 515
-0.43254447 -0.22476581 -0.095585361 65 93096470 4 43 404 506
-0.43818751 -0.22431041 -0.096962713 53 93192790 3 43 370 511
-0.4369843 -0.22031155 -0.096136302 61 93291870 3 43 338 508
-0.4366084 -0.216766 -0.095585361 58 93386990 3 43 346 506
-0.43793023 -0.21408294 -0.095585361 59 93486970 3 43 368 506
-0.4409655 -0.21223077 -0.096136302 55 93582760 3 43 388 508
-0.4422594 -0.20952107 -0.096136302 75 93683210 4 43 380 508
-0.4417966 -0.20598581 -0.095585361 48 93778820 2 43 360 506
-0.44654232 -0.20488505 -0.096687242 44 93877400 2 43 340 510
-0.42766616 -0.19298452 -0.09035144 21 93974140 1 43 346 487
-0 -0 -0 3 94071290 0 43 333 0
-0 -0 -0 5 94169270 0 43 342 0
-0 -0 -0 5 94266160 0 43 340 0
-0 -0 -0 4 94364380 0 43 339 0
-0 -0 -0 6 94459560 0 43 340 0
-0 -0 -0 7 94560020 0 43 339 0
-0 -0 -0 6 94655170 0 43 362 0
-0 -0 -0 4 94755080 0 43 348 0
-0 -0 -0 5 94849790 0 43 346 0
-0 -0 -0 5 94948780 0 43 303 0
-0 -0 -0 4 95046050 0 43 339 0
-7.4972672 -2.7638233 -2.2456255 5 95143130 1 43 345 8311
-0 -0 -0 6 95241440 0 43 365 0
-7.4916644 -2.6577842 -2.2337801 7 95338410 1 43 319 8268
-7.4969368 -2.6079741 -2.2304747 7 95438090 1 43 335 8256
-0 -0 -0 6 95532940 0 43 346 0
-0 -0 -0 5 95633580 0 43 359 0
-7.0613184 -2.3115344 -2.0850267 20 95728560 4 43 342 7728
-6.9929862 -2.2417359 -2.0602343 38 95827580 7 43 366 7638
-7.0387096 -2.2088664 -2.069876 172 95924310 33 43 397 7673
-6.9896455 -2.1464338 -2.0511439 244 96022550 47 43 390 7605
-6.9520502 -2.0882852 -2.0359931 257 96120960 50 43 378 7550
-6.8937159 -2.0247152 -2.014782 233 96217980 43 43 411 7473
-6.8745956 -1.9733537 -2.0054159 261 96316790 49 43 476 7439
-6.8847232 -1.9306154 -2.0048649 301 96413150 56 43 478 7437
-6.9159098 -1.8936706 -2.0106499 297 96512740 56 43 445 7458
-6.949687 -1.8571606 -2.0172613 304 96607180 57 43 477 7482
-6.9869962 -1.8212777 -2.0249743 346 96707080 67 43 419 7510
-7.029716 -1.7864286 -2.0343404 363 96802630 71 43 441 7544
-7.0760021 -1.7520483 -2.0448081 298 96901400 58 43 456 7582
-8.782712 -2.117888 -2.5447855 50 96998360 14 43 414 9397
-8.3762798 -1.9655031 -2.421375 17 97095580 4 43 360 8949
-8.3338251 -1.9016571 -2.4053979 115 97194060 30 43 399 8891
-8.3687992 -1.8556925 -2.4122846 120 97291060 31 43 395 8916
-8.4335928 -1.8158503 -2.4279864 136 97390740 35 43 367 8973
-8.5029154 -1.776266 -2.4450655 137 97485950 37 43 377 9035
-8.5692415 -1.7353261 -2.461318 119 97586620 32 43 408 9094
-8.6023674 -1.6871575 -2.4679294 147 97681010 39 43 388 9118
-8.6286125 -1.6373922 -2.4726124 112 97780970 30 43 385 9135
-8.6630802 -1.5889302 -2.4797745 112 97877480 30 43 383 9161
-8.7578573 -1.5508446 -2.5045669 159 97976180 44 43 416 9251
-8.8250093 -1.506958 -2.5213704 143 98074170 39 43 391 9312
-8.8767748 -1.459807 -2.5337665 123 98171550 34 43 371 9357
-8.9083519 -1.4089205 -2.5403779 121 98269490 33 43 382 9381
-5.8318701 -0.88519853 -1.6462036 341 98365750 44 43 479 6135
-5.8200688 -0.84690225 -1.6412451 382 98464870 49 43 445 6117
-5.7308989 -0.79802561 -1.6139737 267 98560630 34 43 425 6018
-0.50910425 -0.066370733 -0.10302304 31 98660740 1 43 349 533
-0.50950193 -0.063245676 -0.10302304 33 98755600 2 43 350 533
-0.50319976 -0.059311315 -0.10109475 40 98854800 2 43 371 526
-0.50450927 -0.056332041 -0.10137022 31 98950960 1 43 381 527
-0.50006688 -0.052717596 -0.099992879 38 99048820 2 43 344 522
-0.50611889 -0.050234385 -0.10164569 43 99146430 2 43 331 528
-0.50928837 -0.047403406 -0.1024721 52 99243070 3 43 338 531
-0.51244199 -0.044535417 -0.10329852 63 99341340 3 43 342 534
-0.51270562 -0.041390296 -0.10329852 48 99438550 2 43 389 534
-0.52253437 -0.038985513 -0.10605321 60 99537520 3 43 343 544
-0.51892823 -0.035505336 -0.10495133 37 99631360 2 43 319 540
-0 -0 -0 4 99732390 0 43 365 0
-0 -0 -0 4 99827750 0 43 353 0
-4.6199408 0.69123662 -1.4378765 294 0 19 44 412 4900
-4.5948963 0.71632272 -1.4312207 347 99580 22 44 480 4878
-4.5650153 0.7403605 -1.4230522 399 193370 26 44 527 4851
-4.5491099 0.76644665 -1.4194217 510 292560 38 44 570 4839
-4.5330563 0.79236555 -1.4157913 607 387730 50 44 585 4827
-4.4952888 0.81418991 -1.4052025 652 487710 51 44 610 4792
-4.4836516 0.84052193 -1.4030848 727 584650 61 44 710 4785
-4.4727964 0.86692399 -1.4012696 675 682890 54 44 770 4779
-4.4561801 0.89209688 -1.3976392 455 780080 30 44 818 4767
-4.4375567 0.91671127 -1.3934036 275 877550 16 44 902 4753
-4.4467611 0.94711274 -1.3982441 63 975400 3 44 1042 4769
-0 0 -0 3 1071590 0 44 1097 0
-4.3409214 0.980317 -1.3676881 8 1171490 0 44 1124 4668
-4.319973 1.0034696 -1.3628474 72 1265650 4 44 1030 4652
-4.3063192 1.0281799 -1.3604271 235 1365240 14 44 906 4644
-4.2666116 1.0463793 -1.3495358 443 1460100 29 44 815 4608
-4.2721238 1.0755755 -1.3534688 704 1559290 57 44 715 4621
-4.2626762 1.1010509 -1.3525612 865 1656870 80 44 690 4618
-4.2466283 1.1247364 -1.3495358 974 1755670 98 44 668 4608
-4.2304511 1.1482667 -1.3465105 951 1852810 87 44 687 4598
-4.2141452 1.1716409 -1.3434851 900 1949340 79 44 720 4588
-4.2004614 1.1956437 -1.3413674 895 2047600 78 44 756 4581
-4.1829829 1.218453 -1.3380395 921 2143740 82 44 725 4570
-4.1617298 1.240001 -1.3335015 959 2243360 88 44 688 4555
-4.1494856 1.2641203 -1.3319888 844 2337690 71 44 633 4550
-4.1398311 1.2889888 -1.3313837 52 2437840 2 44 376 4548
-0 0 -0 4 2533570 0 44 371 0
-0 0 -0 3 2632280 0 44 405 0
-0 0 -0 4 2729520 0 44 367 0
-0 0 -0 8 2826670 0 44 390 0
-0 0 -0 6 2925170 0 44 423 0
-0 0 -0 12 3021920 0 44 406 0
-0 0 -0 5 3121050 0 44 409 0
-0 0 -0 3 3215940 0 44 334 0
-0 0 -0 5 3315910 0 44 427 0
-0 0 -0 3 3410620 0 44 491 0
-0 0 -0 4 3510340 0 44 552 0
-0 0 -0 3 3605820 0 44 730 0
-0 0 -0 3 3704740 0 44 847 0
-0 0 -0 3 3802970 0 44 936 0
-0 0 -0 2 3900740 0 44 838 0
-0 0 -0 4 3998100 0 44 660 0
-0 0 -0 3 4095260 0 44 529 0
-0 0 -0 9 4193730 0 44 391 0
-0 0 -0 6 4288670 0 44 373 0
-0.95321625 0.42748144 -0.28672603 9 4389080 3 44 419 1095
-0 0 -0 7 4485140 0 44 390 0
-0.95566785 0.44278333 -0.28944883 8 4584210 2 44 415 1104
-0 0 -0 4 4679700 0 44 372 0
-0 0 -0 6 4778490 0 44 421 0
-0 0 -0 12 4875650 0 44 359 0
-0.92915827 0.45845079 -0.2840032 27 4973110 8 44 377 1086
-0.88465583 0.44305569 -0.26917893 64 5072530 20 44 364 1037
-0.87768173 0.44629765 -0.26766622 98 5169640 31 44 378 1032
-0.85633451 0.44197777 -0.26101044 177 5268650 56 44 435 1010
-0.85697597 0.4490076 -0.26222059 141 5363160 45 44 439 1014
-0.85084629 0.45245305 -0.26101044 140 5463500 44 44 400 1010
-0.84303296 0.45492774 -0.25919521 175 5559310 55 44 425 1004
-0.83855766 0.45916918 -0.25859013 185 5658100 59 44 437 1002
-0.83655566 0.46477231 -0.25889269 198 5754120 63 44 449 1003
-0.82788998 0.46659556 -0.25677493 193 5851110 62 44 440 996
-0.82748759 0.47309655 -0.25768253 66 5948420 21 44 361 999
-0.81223232 0.47093952 -0.2531445 84 6047290 27 44 410 984
-0.81916124 0.48175526 -0.25677493 216 6145930 68 44 421 996
-0.78597987 0.46857744 -0.24558109 151 6242040 48 44 395 959
-0.77658236 0.46941724 -0.2431608 97 6342430 30 44 380 951
-0.76882511 0.47116297 -0.24134558 108 6437370 34 44 394 945
-0.76349777 0.47435144 -0.24043797 124 6537750 39 44 432 942
-0.75816029 0.4774923 -0.23953035 140 6632320 44 44 404 939
-0.75281316 0.48058558 -0.23862275 134 6731100 42 44 406 936
-0.74985015 0.4851957 -0.23862275 150 6827340 48 44 435 936
-0.74685895 0.48978755 -0.23862275 179 6925880 56 44 398 936
-0.74225688 0.49329853 -0.23801768 184 7023290 58 44 423 934
-0.74000418 0.49837971 -0.23832022 192 7118990 61 44 466 935
-0.73771703 0.50345182 -0.23862275 240 7218530 76 44 490 936
-0.73461401 0.5079689 -0.23862275 193 7314130 61 44 414 936
-0.73381764 0.51411831 -0.23953035 203 7414780 64 44 418 939
-0.73297334 0.52027702 -0.24043797 212 7509140 67 44 445 942
-0.73902255 0.5314846 -0.2440684 137 7610680 43 44 428 954
-0.73881888 0.53826803 -0.24527855 132 7705320 42 44 415 958
-0.73703092 0.54393005 -0.24588363 126 7803830 40 44 411 960
-0.73748374 0.55131263 -0.24739631 143 7901410 45 44 422 965
-0.73560172 0.5569849 -0.24800138 144 7998680 46 44 407 967
-0.74046141 0.56790525 -0.25132927 221 8096790 70 44 413 978
-0.73546261 0.57126194 -0.2507242 130 8192700 41 44 397 976
-0.73418313 0.57754171 -0.2516318 110 8292040 35 44 411 979
-0.73656857 0.58681303 -0.2540521 97 8387080 31 44 351 987
-0.74404204 0.60034716 -0.25859013 45 8486200 14 44 380 1002
-0.74107987 0.60550749 -0.25889269 175 8581880 55 44 431 1003
-0.74100935 0.61309695 -0.26040536 204 8681100 65 44 422 1008
-0.73941749 0.61947781 -0.26131296 166 8776590 53 44 393 1011
-0.73560256 0.62400317 -0.26131296 188 8875960 60 44 434 1011
-0.73392105 0.63037729 -0.26222059 192 8973240 61 44 406 1014
-0.732189 0.63675421 -0.26312819 183 9071080 58 44 420 1017
-0.75820065 0.66781658 -0.27583471 128 9169590 41 44 384 1059
-0.76472044 0.68201518 -0.28037274 121 9264810 38 44 408 1074
-0.75629216 0.682845 -0.27855754 116 9365190 37 44 389 1068
-0.75979805 0.69457763 -0.28188545 160 9459790 51 44 419 1079
-0.74715871 0.69142425 -0.27825499 125 9558920 40 44 396 1067
-0.73527992 0.68879658 -0.27492711 114 9655160 36 44 414 1056
-0.73517311 0.69724745 -0.27674231 146 9753530 46 44 403 1062
-0.72334772 0.69445318 -0.27341443 132 9849890 42 44 382 1051
-0.71634996 0.69621009 -0.27220428 130 9948120 41 44 389 1047
-0.71138799 0.69992113 -0.27190173 118 10045790 37 44 391 1046
-0.71178764 0.70900083 -0.27401948 111 10143550 35 44 382 1053
-0.72546989 0.73170203 -0.28218797 56 10242210 18 44 405 1080
-0 0 -0 5 10338310 0 44 395 0
-2.7597396 2.8695891 -1.2188402 174 10438020 8 44 400 4176
-2.7538836 2.8989193 -1.2242858 1227 10533610 102 44 680 4194
-2.7412562 2.9213281 -1.2267061 1150 10633000 100 44 674 4202
-2.7291048 2.9443905 -1.229429 1036 10728080 87 44 649 4211
-2.682699 2.9301193 -1.2161174 726 10827740 48 44 673 4167
-2.6097519 2.8856716 -1.1900992 334 10923540 16 44 703 4081
-2.3351364 2.6134729 -1.0675721 367 11021580 16 44 531 3676
-2.3203161 2.6291826 -1.0681771 366 11119360 16 44 636 3678
-2.3022637 2.6412125 -1.0672696 323 11216820 14 44 652 3675
-2.3971767 2.7847159 -1.1214235 210 11315690 9 44 695 3854
-2.5212398 2.965821 -1.1907043 333 11410650 16 44 790 4083
-2.2220407 2.6458807 -1.0518402 350 11509020 14 44 726 3624
-2.4925535 3.006084 -1.1946373 315 11604800 15 44 816 4096
-2.2503161 2.7474949 -1.0823964 272 11703750 11 44 642 3725
-2.2112691 2.7338057 -1.0712025 289 11799990 12 44 645 3688
-2.0394232 2.5527673 -0.99224055 270 11898800 10 44 627 3427
-2.0537806 2.6034346 -1.0076699 273 11995830 11 44 584 3478
-2.2640824 2.9072647 -1.1247514 248 12093420 11 44 599 3865
-1.9717838 2.5634058 -0.98165178 307 12191830 12 44 621 3392
-1.9496872 2.5670986 -0.97832388 286 12286350 11 44 629 3381
-1.8465607 2.4622297 -0.93203586 482 12386610 21 44 563 3228
-1.8206612 2.458945 -0.92628765 363 12481300 14 44 616 3209
-1.8077849 2.473151 -0.9274978 320 12582070 12 44 607 3213
-1.815957 2.516691 -0.94020432 227 12677730 8 44 604 3255
-1.7916497 2.515353 -0.93536371 181 12776650 7 44 578 3239
-2.0656283 2.939153 -1.0954055 319 12873560 13 44 630 3768
-2.3474791 3.3852055 -1.2627079 909 12970970 74 44 734 4321
-2.1213238 3.0988741 -1.1471391 492 13068390 25 44 698 3939
-2.1917632 3.244616 -1.1979651 444 13165320 23 44 815 4107
-2.2974391 3.4468887 -1.2699689 826 13264430 63 44 736 4345
-1.9744983 3.0011327 -1.0954055 341 13361320 14 44 663 3768
-2.2544494 3.4740222 -1.2696663 487 13461210 28 44 590 4344
-2.2084599 3.4492354 -1.2551446 152 13556100 7 44 511 4296
-1.9311196 3.0563207 -1.1026663 105 13656010 4 44 485 3792
-2.200187 3.5311196 -1.275717 60 13751880 3 44 484 4364
-0 0 -0 8 13851390 0 44 501 0
-0 0 -0 4 13947750 0 44 500 0
-0 0 -0 4 14046450 0 44 458 0
-0 0 -0 3 14144480 0 44 535 0
-0 0 -0 2 14241240 0 44 519 0
-0 0 -0 4 14340060 0 44 530 0
-0 0 -0 3 14436550 0 44 490 0
-0 0 -0 4 14536580 0 44 482 0
-0 0 -0 4 14631720 0 44 384 0
-0 0 -0 4 14732640 0 44 397 0
-0.35315657 0.65534902 -0.1914271 14 14827700 4 44 384 780
-0.33983973 0.63977373 -0.18507384 32 14926610 12 44 396 759
-0.33241057 0.63507104 -0.18265355 51 15024310 19 44 369 751
-0.3315312 0.64304626 -0.1847713 84 15121040 32 44 378 758
-0.33611369 0.66211396 -0.19082202 106 15219210 33 44 359 778
-0.33415213 0.66843826 -0.19233471 121 15316000 38 44 383 783
-0.33295798 0.67647821 -0.19445246 147 15415080 46 44 361 790
-0.33044478 0.68194842 -0.1956626 140 15509590 44 44 377 794
-0.32584852 0.68310064 -0.19536006 117 15609990 37 44 410 793
-0.31764719 0.67643744 -0.19233471 75 15705170 24 44 411 783
-0.32178697 0.69658935 -0.19868797 120 15805460 38 44 404 804
-0.31867591 0.70116013 -0.19959557 129 15900670 41 44 380 807
-0.31552082 0.70571887 -0.20050319 147 15999920 46 44 417 810
-0.31459594 0.71551239 -0.20322601 122 16095980 38 44 403 819
-0.31767282 0.7349661 -0.20927674 88 16193940 28 44 385 839
-0.31573504 0.74305534 -0.21139449 87 16291930 27 44 380 846
-0.30971831 0.74145323 -0.21018435 121 16388470 38 44 377 842
-0.30587792 0.74510676 -0.21078941 89 16487430 28 44 383 844
-0.30376443 0.75316983 -0.21290717 75 16582000 24 44 397 851
-0.29775104 0.75146794 -0.21169703 87 16682560 27 44 357 847
-0.27744263 0.71234065 -0.19778036 59 16777130 18 44 418 801
-0.27709451 0.72473454 -0.20141079 48 16877790 15 44 375 813
-0.25349194 0.6745621 -0.18386368 19 16973730 7 44 396 755
-0.24188033 0.6554938 -0.17690536 10 17072410 4 44 348 732
-0 0 -0 9 17169130 0 44 381 0
-0 0 -0 5 17266810 0 44 358 0
-0 0 -0 5 17365630 0 44 387 0
-0 0 -0 6 17461470 0 44 358 0
-0 0 -0 4 17560810 0 44 403 0
-0 0 -0 5 17656470 0 44 337 0
-0 0 -0 4 17756680 0 44 419 0
-0 0 -0 4 17852030 0 44 354 0
-0 0 -0 4 17950910 0 44 362 0
-0 0 -0 5 18047870 0 44 413 0
-0.13519569 0.45505741 -0.10580934 9 18146270 5 44 405 497
-0 0 -0 6 18243630 0 44 380 0
-0.13969123 0.49344832 -0.11791079 35 18339940 18 44 392 537
-0.12482382 0.45010337 -0.10338905 10 18438880 5 44 313 489
-0.12760156 0.47207093 -0.11034738 19 18534860 10 44 345 512
-0.12305558 0.46637949 -0.10822963 13 18634760 7 44 413 505
-0 0 -0 5 18729600 0 44 365 0
-0.1153077 0.45951635 -0.1055068 11 18829280 6 44 406 496
-0.10833929 0.44258672 -0.09975861 10 18925040 5 44 362 477
-0.10774709 0.45253453 -0.10278398 13 19023760 7 44 362 487
-0 0 -0 3 19120080 0 44 359 0
-0.09796191 0.43425751 -0.096430711 13 19217940 7 44 342 466
-0.093927629 0.42832017 -0.094312958 11 19315720 6 44 386 459
-0 0 -0 4 19412560 0 44 378 0
-0.084617533 0.40886572 -0.087657161 11 19512560 6 44 382 437
-0.083176434 0.41499522 -0.089472383 11 19606770 6 44 359 443
-0 0 -0 4 19707430 0 44 420 0
-0.077244021 0.41129243 -0.087959699 16 19802250 8 44 384 438
-0 0 -0 4 19902010 0 44 375 0
-0.073587589 0.42067316 -0.090682529 15 19997450 8 44 368 447
-0.0713038 0.42299947 -0.091287598 8 20095790 4 44 375 449
-0 0 -0 5 20192100 0 44 334 0
-0 0 -0 6 20290110 0 44 410 0
-0.064826176 0.43367976 -0.094312958 19 20388450 10 44 369 459
-0 0 -0 4 20484940 0 44 371 0
-0.062390298 0.45713452 -0.10157383 7 20584380 4 44 352 483
-0 0 -0 4 20679760 0 44 392 0
-0 0 -0 5 20780480 0 44 400 0
-0 0 -0 4 20876260 0 44 354 0
-0.21554391 2.0618787 -0.61316264 5 20975580 0 44 379 2174
-0 0 -0 5 21071700 0 44 365 0
-0.19073869 2.0700643 -0.61497784 64 21169240 5 44 427 2180
-0.16910186 1.9648185 -0.58109379 127 21266140 16 44 444 2068
-0.15896462 1.990526 -0.58895975 300 21363090 37 44 452 2094
-0.14633948 1.9857597 -0.58714449 330 21461670 41 44 448 2088
-0.13365433 1.9790114 -0.58472425 298 21557890 37 44 411 2080
-0.12071905 1.9664737 -0.58048874 263 21656950 33 44 448 2066
-0.10829671 1.9605148 -0.57837099 298 21752840 37 44 436 2059
-0.095683649 1.9487653 -0.57443798 293 21852970 36 44 430 2046
-0.083102204 1.9340782 -0.56959742 283 21946970 35 44 469 2030
-0.070770718 1.9212158 -0.56536192 273 22045800 34 44 410 2016
-0.058627423 1.9092281 -0.5614289 237 22142400 29 44 422 2003
-0.046676625 1.89907 -0.55810106 245 22240030 30 44 437 1992
-0.034744151 1.8821665 -0.5526554 192 22339240 24 44 429 1974
-0.023165764 1.879485 -0.5517478 211 22435040 26 44 437 1971
-0.011568245 1.8633885 -0.54660463 189 22533520 23 44 434 1954
-0.00015486934 1.853893 -0.54357928 190 22629390 24 44 438 1944
0.011125774 1.8424219 -0.53994888 188 22729330 23 44 417 1932
0.022265643 1.8308824 -0.53631842 173 22825340 21 44 423 1920
0.033264328 1.8192761 -0.53268796 180 22925100 33 44 418 1908
0.044324856 1.8152266 -0.53147787 164 23019870 30 44 431 1904
0.055149302 1.8053942 -0.52845246 163 23117880 30 44 425 1894
0.065966122 1.7983549 -0.5263347 163 23214240 30 44 420 1887
0.076569758 1.7883946 -0.52330935 186 23311860 35 44 404 1877
0.087053664 1.7783722 -0.520284 155 23411020 29 44 408 1867
0.097472124 1.7692405 -0.5175612 193 23507010 36 44 390 1858
0.10772134 1.7590969 -0.51453578 180 23606470 33 44 431 1848
0.11811502 1.7526978 -0.51272058 193 23703140 36 44 405 1842
0.1282178 1.7433865 -0.50999779 170 23802800 32 44 410 1833
0.1382108 1.7340175 -0.50727493 183 23897730 34 44 380 1824
0.14809367 1.7245917 -0.50455213 179 23996830 33 44 436 1815
0.15777646 1.7141614 -0.50152677 175 24093810 33 44 441 1805
0.16762324 1.7065227 -0.49940899 180 24192610 33 44 388 1798
0.17738222 1.6988279 -0.49729124 167 24289460 31 44 428 1791
0.18780269 1.6977074 -0.49729124 185 24388480 34 44 401 1791
0.19629695 1.6804339 -0.49214813 161 24486250 30 44 403 1774
0.20743507 1.6858178 -0.49426588 203 24582430 38 44 394 1781
0.21578319 1.6693937 -0.4894253 175 24682850 32 44 389 1765
0.22589205 1.6670941 -0.48912278 200 24777480 37 44 388 1764
0.23325913 1.6458658 -0.48276952 150 24877500 28 44 377 1743
0.24377918 1.6472311 -0.48367712 178 24973310 33 44 425 1746
0.25181472 1.6325215 -0.47944161 164 25072250 30 44 374 1732
0.26105982 1.626242 -0.47792894 175 25168810 40 44 382 1727
0.26960057 1.6161519 -0.47520611 180 25268170 41 44 382 1718
0.27835733 1.607896 -0.47308835 165 25365390 37 44 406 1711
0.28719366 1.6005313 -0.47127312 185 25462360 42 44 433 1705
0.29577368 1.5921824 -0.46915537 175 25561290 40 44 454 1698
0.30426207 1.5837888 -0.46703762 171 25656960 39 44 430 1691
0.31265867 1.575351 -0.46491987 141 25757620 32 44 409 1684
0.32096323 1.5668701 -0.46280211 149 25851680 34 44 435 1677
0.32937494 1.559279 -0.46098688 129 25952300 29 44 414 1671
0.33791071 1.5525746 -0.45947421 160 26047810 36 44 435 1666
0.34637666 1.5458243 -0.45796153 159 26146120 36 44 420 1661
0.35455602 1.5381006 -0.4561463 193 26242760 44 44 420 1655
0.36398694 1.5358961 -0.4561463 130 26339900 29 44 400 1655
0.37203681 1.5280808 -0.4543311 170 26438240 39 44 402 1649
0.37977093 1.5193008 -0.45221335 196 26535130 45 44 411 1642
0.38812912 1.5132514 -0.45100319 178 26633570 40 44 432 1638
0.39618248 1.5062357 -0.44949052 176 26729480 40 44 409 1633
0.4041644 1.4991784 -0.44797784 179 26828100 41 44 387 1628
0.41207471 1.49208 -0.44646516 194 26923010 44 44 398 1623
0.41991314 1.484941 -0.44495249 179 27022840 41 44 430 1618
0.42767954 1.4777622 -0.44343978 191 27119010 43 44 412 1613
0.43619281 1.4732839 -0.44283471 199 27217330 45 44 405 1611
0.44383135 1.4660221 -0.44132203 164 27313840 37 44 422 1606
0.45253411 1.4623615 -0.44101951 167 27411150 38 44 423 1605
0.46062908 1.4568332 -0.44011191 219 27509270 50 44 428 1602
0.46837795 1.4503546 -0.43890175 192 27604730 44 44 384 1598
0.47726834 1.4474534 -0.43890175 182 27704570 41 44 398 1598
0.48644722 1.4454001 -0.43920428 201 27798960 46 44 429 1599
0.49312291 1.4360838 -0.43708652 221 27899170 50 44 391 1592
0.50129026 1.4312336 -0.43648145 211 27992910 48 44 459 1590
0.50909364 1.4254405 -0.43557385 222 28092520 50 44 432 1587
0.51783037 1.42229 -0.43557385 265 28188380 60 44 459 1587
0.52454364 1.4137297 -0.43375865 266 28287640 60 44 389 1581
0.53252929 1.4087032 -0.43315357 251 28384560 57 44 410 1579
0.53771365 1.3965238 -0.43012819 223 28483170 51 44 415 1569
0.54697317 1.394971 -0.43073326 253 28581220 58 44 429 1571
0.55160838 1.381862 -0.42740536 226 28676520 51 44 427 1560
0.56079936 1.3802154 -0.42801043 232 28776160 53 44 425 1562
0.56669122 1.3705899 -0.42589268 240 28871250 55 44 431 1555
0.57137012 1.3583115 -0.42286733 223 28971970 51 44 430 1545
0.58007121 1.3556553 -0.42316985 231 29067060 52 44 427 1546
0.58876121 1.3529434 -0.4234724 229 29166000 52 44 399 1547
0.59511107 1.3449527 -0.42195973 219 29263240 50 44 433 1542
0.60413921 1.3430122 -0.4225648 235 29361140 53 44 402 1544
0.61077332 1.3358171 -0.42135465 208 29459540 47 44 473 1540
0.61936235 1.3329076 -0.42165717 233 29557000 53 44 419 1541
0.62425435 1.3221961 -0.4192369 209 29654090 61 44 412 1533
0.63235545 1.3183409 -0.4192369 237 29750580 69 44 395 1533
0.63749349 1.3084464 -0.41711915 258 29849410 75 44 406 1526
0.64338428 1.3002448 -0.41560647 216 29945530 63 44 440 1521
0.64962888 1.2928708 -0.41439632 231 30046620 67 44 388 1517
0.65711403 1.2880126 -0.41409376 217 30140880 63 44 378 1516
0.66368246 1.2814211 -0.41318616 211 30240420 61 44 415 1513
0.67064071 1.2756399 -0.41258109 214 30336960 62 44 405 1511
0.67755306 1.2698216 -0.41197601 215 30433490 63 44 409 1509
0.68533176 1.2656404 -0.41197601 200 30531760 58 44 413 1509
0.69400746 1.2630795 -0.41258109 247 30628920 72 44 411 1511
0.69801265 1.2521479 -0.41016081 212 30727780 62 44 402 1503
0.70568258 1.2478414 -0.41016081 221 30823830 64 44 404 1503
0.71189594 1.2410117 -0.40925321 214 30924060 62 44 395 1500
0.71901554 1.2357978 -0.40895066 236 31018700 69 44 403 1499
0.72415102 1.2272652 -0.40743798 212 31118710 62 44 416 1494
0.7321595 1.2236154 -0.4077405 238 31214660 70 44 442 1495
0.73816341 1.2166595 -0.4068329 228 31313070 66 44 392 1492
0.74611652 1.2129177 -0.40713546 243 31408950 71 44 432 1493
0.75202471 1.2058949 -0.40622783 222 31507350 65 44 388 1490
0.75992143 1.202062 -0.40653038 231 31605910 68 44 447 1491
0.76624972 1.1957746 -0.4059253 222 31700800 65 44 451 1489
0.7694006 1.1846678 -0.403505 198 31801410 58 44 442 1481
0.78033966 1.1854869 -0.40562275 231 31897220 68 44 436 1488
0.78547406 1.177511 -0.40441263 210 31997790 61 44 448 1484
0.79268432 1.1726693 -0.40441263 230 32091670 67 44 423 1484
0.79878294 1.1662138 -0.40380755 246 32191670 72 44 450 1482
0.8042866 1.1589463 -0.40289992 215 32287720 63 44 374 1479
0.80973113 1.1516551 -0.40199232 212 32386710 62 44 446 1476
0.81511652 1.1443409 -0.40108472 210 32483830 61 44 410 1473
0.82212275 1.1393179 -0.40108472 214 32580850 62 44 430 1473
0.82853329 1.1334841 -0.40078217 231 32678510 67 44 419 1472
0.83490318 1.1276147 -0.40047964 208 32775290 61 44 448 1471
0.84180641 1.1224706 -0.40047964 204 32873960 59 44 409 1471
0.8498354 1.1187989 -0.40108472 215 32968620 63 44 427 1473
0.85668421 1.1135633 -0.40108472 210 33068810 61 44 454 1473
0.86114877 1.1052853 -0.39987457 191 33163250 56 44 472 1469
0.87147003 1.1044596 -0.4016898 213 33263090 62 44 437 1475
0.87823045 1.0990916 -0.4016898 231 33359870 67 44 420 1475
0.88255101 1.0907254 -0.40047964 196 33457160 57 44 425 1471
0.88983315 1.0860251 -0.40078217 218 33555530 64 44 416 1472
0.89586943 1.079813 -0.40047964 199 33653120 58 44 455 1471
0.90247816 1.0742958 -0.40047964 206 33752330 60 44 451 1471
0.90843326 1.0680138 -0.40017712 203 33848300 59 44 405 1470
0.91559345 1.06314 -0.40047964 211 33948080 62 44 495 1471
0.921471 1.0567856 -0.40017712 220 34042100 64 44 415 1470
0.9254064 1.0482609 -0.39896697 196 34141210 57 44 399 1466
0.93437004 1.0453981 -0.40017712 247 34237530 72 44 397 1470
0.94076687 1.0396452 -0.40017712 231 34337610 67 44 429 1470
0.94325286 1.0296478 -0.39836189 183 34434030 53 44 420 1464
0.95280391 1.0273254 -0.39987457 222 34532420 65 44 421 1469
0.95974398 1.0221527 -0.40017712 225 34629100 66 44 414 1470
0.9659977 1.0162445 -0.40017712 227 34725920 66 44 435 1470
0.97420382 1.0123527 -0.40108472 229 34825150 67 44 441 1473
0.98039716 1.006356 -0.40108472 216 34920620 63 44 414 1473
0.98722488 1.0009981 -0.40138724 240 35020930 70 44 418 1474
0.99469912 0.99626684 -0.40199232 231 35115490 68 44 450 1476
1.0014728 0.99081314 -0.40229487 200 35215360 59 44 435 1477
1.0089008 0.98597795 -0.40289992 218 35312570 64 44 410 1479
1.016307 0.98108882 -0.403505 229 35410230 67 44 426 1481
1.0236911 0.97614592 -0.40411007 229 35507270 67 44 430 1483
1.0310528 0.97114927 -0.40471515 211 35605090 62 44 468 1485
1.0397911 0.96739346 -0.4059253 216 35703200 63 44 425 1489
1.0478183 0.96292388 -0.4068329 220 35800770 64 44 382 1492
1.0529994 0.95583791 -0.40653038 199 35899330 58 44 387 1491
1.060979 0.95126152 -0.40743798 198 35995070 58 44 423 1494
1.068942 0.94662309 -0.40834558 224 36095810 66 44 449 1497
1.0747302 0.94004637 -0.40834558 240 36190670 70 44 425 1497
1.080478 0.93343425 -0.40834558 222 36291480 65 44 454 1497
1.0840045 0.92493725 -0.40743798 207 36387220 60 44 409 1494
1.0874676 0.9164322 -0.40653038 186 36485210 54 44 417 1491
1.0938046 0.91035002 -0.4068329 193 36581950 56 44 426 1492
1.1030602 0.90663683 -0.40834558 230 36679470 67 44 398 1497
1.1086024 0.89985156 -0.40834558 221 36778100 64 44 418 1497
1.114103 0.89303231 -0.40834558 214 36874990 62 44 429 1497
1.1218086 0.88794774 -0.40925321 220 36973550 64 44 450 1500
1.1294938 0.88280207 -0.41016081 218 37069070 64 44 411 1503
1.1356456 0.87643522 -0.41046333 207 37168530 60 44 427 1504
1.1425215 0.87060153 -0.41106841 236 37263750 69 44 436 1506
1.1486052 0.86414558 -0.41137096 221 37364030 65 44 435 1507
1.1561862 0.85878009 -0.41227856 221 37460540 65 44 440 1510
1.162204 0.85223109 -0.41258109 211 37560360 61 44 383 1511
1.170506 0.84731066 -0.41379124 236 37657030 69 44 400 1515
1.1772372 0.8412165 -0.41439632 202 37754830 59 44 420 1517
1.1847179 0.83561873 -0.41530392 198 37853080 58 44 395 1520
1.192958 0.83050317 -0.41651407 200 37948820 58 44 383 1524
1.1996057 0.82424277 -0.41711915 179 38048650 52 44 398 1526
1.2078021 0.81899738 -0.41832927 202 38143410 59 44 438 1530
1.2207409 0.81684941 -0.42135465 231 38243060 53 44 440 1540
1.2289175 0.81143558 -0.4225648 236 38338090 54 44 437 1544
1.2346733 0.80439788 -0.42286733 208 38436830 47 44 408 1545
1.244405 0.79988575 -0.42468256 208 38533340 47 44 408 1551
1.2517086 0.79375976 -0.42559016 207 38631580 47 44 380 1554
1.2581744 0.78707099 -0.42619523 180 38729330 41 44 370 1556
1.2686678 0.78282404 -0.42831299 207 38827140 47 44 426 1563
1.2750784 0.77601147 -0.42891806 218 38925670 50 44 447 1565
1.2806345 0.76866138 -0.42922059 194 39020960 44 44 450 1566
1.2902561 0.7636885 -0.43103582 213 39120780 48 44 385 1572
1.2990403 0.75814813 -0.43254849 205 39214970 47 44 416 1577
1.3069775 0.75205553 -0.43375865 223 39315330 51 44 422 1581
1.3148887 0.74589401 -0.43496877 215 39410600 49 44 403 1585
1.3219402 0.73920077 -0.4358764 201 39509680 46 44 431 1588
1.3289589 0.732449 -0.436784 198 39606000 45 44 436 1591
1.3351057 0.72518617 -0.43738908 192 39703810 44 44 435 1593
1.3445795 0.71966553 -0.43920428 162 39801870 37 44 415 1599
1.3498143 0.71184409 -0.43950683 194 39897560 44 44 451 1600
1.3575445 0.70529699 -0.44071695 182 39996930 41 44 400 1604
1.3652452 0.69868177 -0.44192711 207 40092840 47 44 418 1608
1.3746202 0.69285196 -0.44374233 204 40193220 47 44 444 1614
1.3873944 0.6886192 -0.44676769 189 40287540 43 44 403 1624
1.3958808 0.6821745 -0.44828036 204 40387430 47 44 445 1629
1.4052002 0.67606246 -0.45009559 182 40482660 42 44 448 1635
1.414497 0.66986161 -0.45191079 180 40581460 41 44 405 1641
1.4237704 0.66357207 -0.45372602 168 40677820 38 44 395 1647
1.4330196 0.6571939 -0.45554125 171 40775480 39 44 418 1653
1.4405044 0.64994758 -0.45675138 160 40873790 36 44 385 1657
1.4488263 0.64301854 -0.45826408 172 40970690 39 44 443 1662
1.4562427 0.63563269 -0.45947421 175 41070570 40 44 412 1666
1.4618691 0.6274327 -0.46007928 165 41165480 37 44 411 1668
1.4692079 0.61992413 -0.46128944 166 41265530 38 44 435 1672
1.4765095 0.61234903 -0.46249959 172 41360470 39 44 424 1676
1.4828897 0.60435015 -0.46340719 179 41459280 41 44 463 1679
1.490113 0.59664804 -0.46461734 150 41556810 34 44 404 1683
1.4972974 0.58887994 -0.46582747 128 41654780 29 44 423 1687
1.5062226 0.5817284 -0.46764269 153 41752740 35 44 404 1693
1.513332 0.57381809 -0.46885285 170 41850010 39 44 387 1697
1.5204009 0.56584239 -0.47006297 161 41948520 37 44 436 1701
1.5292209 0.55845082 -0.4718782 173 42044790 39 44 386 1707
1.534415 0.54969555 -0.47248328 146 42144000 33 44 377 1709
1.5440593 0.54246587 -0.47460103 179 42238390 41 44 425 1716
1.5554763 0.53575474 -0.47732386 188 42338850 43 44 446 1725
1.5650612 0.52831864 -0.47944161 188 42433260 35 44 393 1732
1.5718961 0.51989383 -0.48065174 159 42533200 29 44 416 1736
1.5814089 0.51227945 -0.48276952 154 42629710 29 44 413 1743
1.5908871 0.50456786 -0.48488727 169 42727200 31 44 416 1750
1.601241 0.49703944 -0.48730755 172 42825720 32 44 435 1758
1.6097367 0.48885342 -0.48912278 155 42922000 29 44 398 1764
1.6191064 0.48085096 -0.49124053 182 43020040 34 44 399 1771
1.6266063 0.4722248 -0.49275321 212 43114750 39 44 386 1776
1.6395667 0.46507198 -0.49608111 184 43214040 34 44 407 1787
1.6515809 0.45752552 -0.49910647 171 43308930 32 44 458 1797
1.660802 0.44910923 -0.50122422 169 43408920 31 44 415 1804
1.6727482 0.44131979 -0.50424957 147 43505080 27 44 426 1814
1.6874319 0.43410644 -0.50818253 190 43603700 35 44 404 1827
1.6956142 0.42512208 -0.50999779 195 43700340 36 44 399 1833
1.7037495 0.41605359 -0.51181298 185 43798500 34 44 396 1839
1.7136928 0.40733773 -0.51423329 196 43897010 36 44 419 1847
1.7208056 0.39787781 -0.51574594 183 43994230 34 44 407 1852
1.7278666 0.38834587 -0.51725864 175 44093270 32 44 429 1857
1.741397 0.38015014 -0.52088904 133 44188050 25 44 413 1869
1.7548915 0.37180293 -0.5245195 92 44287850 17 44 416 1881
1.7627443 0.36216623 -0.5263347 73 44381490 13 44 395 1887
1.7696095 0.35226315 -0.52784741 62 44481520 11 44 360 1892
1.7764192 0.34228942 -0.52936012 64 44576480 12 44 415 1897
1.7850479 0.33259028 -0.53147787 74 44675480 14 44 399 1904
1.7945626 0.32296482 -0.53389812 75 44772430 14 44 381 1912
1.8068445 0.31371787 -0.53722602 70 44869500 8 44 382 1923
1.8171991 0.30402195 -0.53994888 71 44967640 9 44 382 1932
1.8246785 0.29376251 -0.54176408 73 45065060 9 44 367 1938
1.8358692 0.28399718 -0.54478943 65 45163890 8 44 401 1948
1.8498378 0.27451906 -0.54872239 70 45258730 8 44 395 1961
1.8618708 0.26461604 -0.55205029 89 45358150 11 44 435 1972
1.868183 0.25381809 -0.553563 77 45453130 9 44 355 1977
1.8763237 0.24319355 -0.55568075 85 45553350 10 44 417 1984
1.8881891 0.23293723 -0.55900866 61 45649340 7 44 381 1995
1.9037863 0.22297978 -0.56354666 67 45747770 8 44 396 2010
1.9164892 0.21253055 -0.56717712 72 45846060 9 44 394 2022
1.9348242 0.20251706 -0.57262278 56 45943330 7 44 387 2040
1.953108 0.19228652 -0.57806844 78 46041060 9 44 404 2058
1.9732368 0.18201031 -0.58411914 76 46136850 9 44 421 2078
1.980965 0.17045754 -0.58623689 73 46236210 9 44 371 2085
1.9952773 0.1593342 -0.5904724 80 46331460 10 44 398 2099
2.010478 0.14810969 -0.59501046 75 46432120 5 44 378 2114
2.0246644 0.13664234 -0.59924597 76 46527680 6 44 433 2128
2.0349793 0.12478078 -0.60227132 83 46626570 6 44 407 2138
2.0433211 0.11269663 -0.60469162 84 46723040 6 44 381 2146
2.0544469 0.10064898 -0.60801953 88 46820890 6 44 356 2157
2.06074 0.088274576 -0.60983473 92 46918730 7 44 384 2163
2.0660057 0.075793684 -0.61134744 82 47015100 6 44 400 2168
2.0778649 0.063441887 -0.61497784 104 47114230 8 44 400 2180
2.0858381 0.050861988 -0.61739814 124 47210420 9 44 395 2188
2.0994532 0.03827966 -0.62163365 175 47311190 13 44 441 2202
2.0920238 0.025319668 -0.61921334 122 47405870 9 44 411 2194
2.0959523 0.012498016 -0.6204235 162 47505790 12 44 436 2198
2.085505 -0.00034032439 -0.61709559 186 47601460 14 44 424 2187
2.0835574 -0.013120964 -0.61649054 175 47700270 13 44 418 2185
2.0786726 -0.025836514 -0.61497784 168 47798110 13 44 405 2180
2.0727572 -0.038473032 -0.61316264 174 47896490 13 44 403 2174
2.0677183 -0.051063366 -0.61164993 139 47994710 10 44 383 2169
2.0606976 -0.063530765 -0.60953218 130 48090970 10 44 401 2162
2.0526497 -0.075876825 -0.60711193 128 48189230 10 44 405 2154
2.0416715 -0.087997638 -0.60378402 157 48284930 12 44 409 2143
2.03443 -0.10018182 -0.60166627 150 48383810 11 44 447 2136
2.0290191 -0.11238974 -0.60015357 144 48478700 11 44 425 2131
2.0092671 -0.12362783 -0.59410286 184 48578610 23 44 426 2111
2.0103722 -0.13608676 -0.59470791 171 48674760 13 44 440 2113
1.9999954 -0.14769812 -0.59168255 145 48774690 18 44 395 2103
1.9952517 -0.15965517 -0.5904724 138 48871750 17 44 387 2099
1.9837906 -0.17097293 -0.58714449 133 48968890 16 44 408 2088
1.9751128 -0.18242496 -0.58472425 134 49066590 16 44 420 2080
1.9644729 -0.19358608 -0.58169883 113 49162240 14 44 394 2070
1.9509274 -0.20431972 -0.57776588 132 49261480 16 44 414 2057
1.9458486 -0.21585821 -0.57655573 115 49356680 14 44 356 2053
1.9350232 -0.22666474 -0.57353038 114 49457290 14 44 380 2043
1.9250845 -0.23746528 -0.57080758 124 49552580 15 44 414 2034
1.9084717 -0.24728096 -0.56596696 138 49652090 17 44 387 2018
1.8965323 -0.25755325 -0.56263906 146 49748560 18 44 401 2007
1.8949163 -0.2691853 -0.56263906 133 49846720 16 44 374 2007
1.8819187 -0.27910477 -0.55900866 108 49943800 13 44 412 1995
1.8754625 -0.2899085 -0.55749595 116 50041320 14 44 399 1990
1.8595378 -0.29910928 -0.55295789 105 50139110 13 44 396 1975
1.8482701 -0.30892164 -0.54993254 104 50235540 13 44 397 1965
1.8378909 -0.31877196 -0.54720974 85 50334930 10 44 368 1956
1.8330872 -0.32953089 -0.54630214 91 50429630 11 44 428 1953
1.8244741 -0.33953705 -0.54418439 89 50529710 11 44 391 1946
1.8176786 -0.34981439 -0.54267168 100 50623930 12 44 423 1941
1.815498 -0.36096087 -0.54267168 96 50723640 12 44 355 1941
1.8076495 -0.37093168 -0.54085648 95 50820620 12 44 414 1935
1.7997471 -0.38081986 -0.53904122 95 50918670 12 44 403 1929
1.7936534 -0.39103526 -0.53783113 91 51016980 11 44 399 1925
1.7856431 -0.40076861 -0.53601587 72 51113610 13 44 409 1919
1.7785093 -0.41063496 -0.53450322 80 51212260 15 44 389 1914
1.7731756 -0.42087334 -0.53359562 76 51308270 14 44 410 1911
1.7677833 -0.43106171 -0.53268796 79 51408310 15 44 434 1908
1.7632569 -0.4414334 -0.53208292 64 51503390 12 44 375 1906
1.7586699 -0.45176575 -0.53147787 57 51603260 10 44 381 1904
1.7540225 -0.46205845 -0.53087276 77 51699530 14 44 412 1902
1.7511544 -0.47281224 -0.53087276 112 51798610 21 44 462 1902
1.7335312 -0.47944936 -0.52603221 142 51894970 26 44 418 1886
1.7149767 -0.4856264 -0.52088904 193 51992990 36 44 441 1869
1.7064755 -0.49453562 -0.51907384 192 52090480 36 44 418 1863
1.6961035 -0.5028128 -0.51665354 179 52186090 33 44 412 1855
1.6893402 -0.51209587 -0.51544344 194 52285830 36 44 441 1851
