# .PCD v0.7 - Point Cloud Data file format
VERSION 0.7
FIELDS x y z intensity t reflectivity ring ambient range
SIZE 4 4 4 4 4 2 1 2 4
TYPE F F F F U U U U U
COUNT 1 1 1 1 1 1 1 1 1
WIDTH 852
HEIGHT 1
VIEWPOINT 0 0 0 1 0 0 0
POINTS 852
DATA ascii
-2.8066835 -0.095577404 -1.58612 31 387480 2 53 553 3247
-5.0874491 -0.14332876 -2.9169853 13 486620 1 53 572 5888
-5.0519643 -0.11129928 -2.8958204 5 583100 0 53 531 5846
-0 -0 -0 5 682970 0 53 568 0
-0 -0 -0 4 777390 0 53 569 0
-0 -0 -0 5 877600 0 53 548 0
-0 0 -0 5 972780 0 53 517 0
-0 0 -0 3 1071770 0 53 546 0
-0 0 -0 4 1168760 0 53 553 0
-0 0 -0 6 1265780 0 53 500 0
-0 0 -0 5 1363340 0 53 531 0
-0 0 -0 4 1459460 0 53 527 0
-0 0 -0 4 1558640 0 53 531 0
-0 0 -0 6 1654910 0 53 575 0
-0 0 -0 5 1755740 0 53 546 0
-0 0 -0 3 1849950 0 53 527 0
-0 0 -0 5 1949840 0 53 608 0
-0 0 -0 4 2044880 0 53 569 0
-0 0 -0 7 2144070 0 53 560 0
-0 0 -0 5 2240740 0 53 562 0
-0 0 -0 4 2338020 0 53 538 0
-0 0 -0 4 2436320 0 53 541 0
-0 0 -0 5 2532820 0 53 583 0
-0 0 -0 4 2632060 0 53 569 0
-0 0 -0 4 2727800 0 53 554 0
-0 0 -0 7 2827100 0 53 564 0
-0 0 -0 6 2922430 0 53 585 0
-0 0 -0 6 3022570 0 53 565 0
-0 0 -0 5 3118490 0 53 547 0
-0 0 -0 5 3216370 0 53 555 0
-0 0 -0 6 3313610 0 53 508 0
-0 0 -0 12 3411000 0 53 546 0
-0 0 -0 4 3509120 0 53 494 0
-0 0 -0 5 3605020 0 53 548 0
-0 0 -0 11 3704660 0 53 526 0
-0 0 -0 12 3800980 0 53 531 0
-0 0 -0 5 3901160 0 53 568 0
-0 0 -0 5 3995730 0 53 542 0
-2.3387434 0.47220704 -1.3397008 5 4095650 0 53 583 2758
-2.3171961 0.48268613 -1.3286145 13 4191300 1 53 563 2736
-3.5135584 0.75355196 -2.0441875 17 4289140 1 53 551 4156
-3.4852505 0.76989073 -2.0300777 35 4387180 2 53 558 4128
-3.4880421 0.79298121 -2.0346131 109 4485100 8 53 575 4137
-3.4797461 0.81358343 -2.0325973 118 4583580 9 53 548 4133
-3.4604096 0.83149534 -2.0240307 60 4678620 4 53 615 4116
-3.461952 0.85436493 -2.0280621 42 4778940 3 53 573 4124
-3.4800918 0.88151884 -2.042172 36 4873330 2 53 563 4152
-3.4545512 0.89765143 -2.0300777 48 4973620 3 53 560 4128
-3.4589953 0.9214949 -2.0361247 50 5070300 4 53 544 4140
-3.4624429 0.94519949 -2.0416679 45 5170270 3 53 597 4151
-3.4657295 0.96898103 -2.0472112 29 5266310 2 53 632 4162
-3.4555662 0.98904163 -2.0446916 30 5363740 2 53 552 4157
-3.4295356 1.0044086 -2.0325973 44 5462060 3 53 599 4133
-3.4183428 1.0239481 -2.0295737 46 5559040 3 53 572 4127
-3.4029095 1.0421255 -2.0240307 51 5657790 4 53 573 4116
-3.399749 1.0640161 -2.0260463 38 5752800 3 53 563 4120
-3.3931563 1.0848565 -2.0260463 38 5851620 3 53 567 4120
-1.0451528 0.34242749 -0.5893569 13 5946020 4 53 562 1269
-1.0487689 0.35074314 -0.59288436 29 6048020 10 53 541 1276
-1.0523221 0.35911602 -0.59641182 17 6143680 6 53 577 1283
-1.0631572 0.3700906 -0.60447466 26 6242760 9 53 542 1299
-1.0690103 0.37948483 -0.60951388 17 6340130 6 53 564 1309
-1.0853518 0.39277074 -0.62110418 12 6438240 4 53 549 1332
-1.0999483 0.40567571 -0.63168657 15 6536490 5 53 530 1353
-1.107146 0.41604987 -0.6377337 21 6632090 7 53 598 1365
-1.1166787 0.42745051 -0.64529252 17 6731160 6 53 554 1380
-1.1140349 0.43429428 -0.64529252 27 6825780 9 53 593 1380
-1.1169719 0.44334462 -0.64882004 15 6926690 5 53 534 1387
-1.1294551 0.45631704 -0.65839458 11 7020850 4 53 557 1406
-0 0 -0 5 7119970 0 53 558 0
-0.88857502 0.37211704 -0.50973678 26 7216150 8 53 572 1111
-0.77255887 0.329346 -0.43767554 44 7314920 14 53 543 968
-0.75783336 0.32860735 -0.42961276 68 7412910 20 53 547 952
-0.75580275 0.33325115 -0.42961276 53 7509870 16 53 589 952
-0.7529549 0.33753064 -0.42910883 68 7609730 20 53 571 951
-0.75086963 0.34214431 -0.42910883 74 7705000 22 53 569 951
-0.74875617 0.34674513 -0.42910883 106 7804210 32 53 591 951
-0.74817902 0.35206532 -0.43011668 91 7899680 27 53 571 953
-0.74912471 0.35813347 -0.43213236 116 7999360 35 53 604 957
-0.74691314 0.36272329 -0.43213236 59 8094920 18 53 603 957
-0.74002111 0.3650161 -0.42910883 33 8193610 10 53 589 951
-0.7501362 0.37571478 -0.43717164 78 8290050 25 53 603 967
-0.75089943 0.38187063 -0.43918732 126 8387860 40 53 613 971
-0.75238347 0.38844469 -0.44170696 83 8484660 26 53 583 976
-0.74845421 0.39225498 -0.4406991 55 8582440 17 53 560 974
-0.75137675 0.39966914 -0.44422656 80 8680750 25 53 577 981
-0.75347549 0.40672502 -0.44725013 101 8775890 32 53 571 987
-0.75096565 0.41134059 -0.44725013 132 8876840 42 53 558 987
-0.74691606 0.41510439 -0.44624227 73 8971390 23 53 587 985
-0.74510813 0.42010236 -0.4467462 104 9072130 33 53 587 986
-0.7447682 0.4259485 -0.44825795 77 9167730 24 53 551 989
-0.74363655 0.43137425 -0.44926581 74 9265820 23 53 583 991
-0.74544752 0.43854839 -0.45228937 88 9363420 28 53 561 997
-0.75016862 0.44752541 -0.45732862 67 9460740 21 53 520 1007
-0.75036812 0.45390266 -0.4593443 63 9557810 20 53 563 1011
-0.75125456 0.46074933 -0.46186393 86 9655360 27 53 623 1016
-0.75061637 0.46671444 -0.46337572 70 9753830 22 53 569 1019
-0.75285947 0.4745259 -0.46690318 64 9849000 20 53 506 1026
-0.75503474 0.48238236 -0.47043064 73 9948980 23 53 597 1033
-0.75786757 0.49075139 -0.47446206 58 10043850 18 53 620 1041
-0.75628811 0.49633756 -0.47546992 66 10144780 21 53 547 1043
-0.75610864 0.50287688 -0.4774856 70 10240220 22 53 544 1047
-0.75300884 0.50750679 -0.4774856 68 10339490 21 53 555 1047
-0.75059479 0.51260346 -0.47798952 30 10436030 9 53 503 1048
-0.72965628 0.50494409 -0.4653914 5 10534840 2 53 498 1023
-2.9168293 2.0390992 -2.0240307 9 10632230 0 53 553 4116
-2.8767643 2.0375009 -2.0043776 34 10728040 2 53 567 4077
-2.8782485 2.0651784 -2.014456 48 10828110 3 53 582 4097
-2.8704152 2.0863528 -2.0179834 48 10922440 3 53 559 4104
-2.8554721 2.1023908 -2.0164719 47 11022850 3 53 590 4101
-0.8435629 0.63054091 -0.56214494 31 11117420 10 53 586 1215
-0.84036756 0.63622534 -0.56264889 51 11218110 17 53 577 1216
-0.83987921 0.6439923 -0.5651685 79 11313840 26 53 559 1221
-0.83181381 0.64596128 -0.56214494 79 11411880 26 53 568 1215
-0.82579529 0.64945436 -0.56063318 64 11507670 21 53 563 1212
-0.82044184 0.65343499 -0.55962533 64 11605910 21 53 573 1210
-0.8130511 0.65575087 -0.55710572 80 11703350 27 53 555 1205
-0.80633283 0.65854603 -0.55509001 68 11799920 23 53 572 1201
-0.79827797 0.66018468 -0.55206645 84 11899630 28 53 602 1195
-0.79553837 0.66617739 -0.5530743 75 11994610 25 53 613 1197
-0.78681797 0.66714329 -0.54954684 114 12094550 38 53 524 1190
-0.78336585 0.67252016 -0.55005074 106 12190200 35 53 598 1191
-0.77922463 0.6773141 -0.55005074 96 12287630 32 53 557 1191
-0.77505404 0.68208259 -0.55005074 94 12385000 31 53 557 1191
-0.76956266 0.68567824 -0.54904294 92 12482540 31 53 573 1189
-0.76469862 0.68980974 -0.54853898 85 12580970 28 53 569 1188
-0.76172906 0.69565183 -0.54954684 63 12678510 21 53 546 1190
-0.75554091 0.69855648 -0.54803509 88 12776680 29 53 541 1187
-0.75376654 0.70553625 -0.55005074 69 12873060 23 53 562 1191
-0.74753952 0.70836866 -0.54853898 79 12972300 26 53 571 1188
-0.74754882 0.71712083 -0.55206645 70 13066890 23 53 540 1195
-0.74809927 0.72650045 -0.55609787 59 13166580 20 53 553 1203
-0.74547809 0.73289073 -0.55760962 55 13262890 18 53 554 1206
-0.74955148 0.74596798 -0.5646646 42 13362600 14 53 572 1220
-0.73947537 0.74504423 -0.56012928 53 13459600 18 53 588 1211
-0.74094647 0.7557258 -0.5651685 41 13557460 14 53 547 1221
-0.74532348 0.76955092 -0.57272738 19 13655300 6 53 547 1236
-0.73819536 0.77161682 -0.57071167 8 13752390 3 53 576 1232
-2.40973 2.5445349 -1.9922833 28 13851830 2 53 546 4053
-2.3987947 2.564317 -1.9963148 44 13947060 3 53 563 4061
-2.386534 2.582792 -1.9993383 38 14047800 3 53 604 4067
-2.376467 2.6037638 -2.0043776 37 14142760 3 53 557 4077
-2.3662324 2.6247094 -2.0094168 35 14242760 2 53 529 4087
-2.3604279 2.6507852 -2.0184875 36 14338510 2 53 583 4105
-2.340694 2.6613288 -2.0154638 23 14438100 1 53 561 4099
-2.333955 2.6867216 -2.0240307 32 14534850 2 53 584 4116
-2.3179884 2.7016473 -2.0245345 25 14633210 2 53 543 4117
-2.3080723 2.7237239 -2.0305817 42 14732200 3 53 550 4129
-2.2724581 2.7153223 -2.0134482 25 14828190 2 53 575 4095
-2.2276745 2.6952732 -1.987748 12 14927300 1 53 606 4044
-2.1886888 2.6814668 -1.9670871 6 15023580 0 53 616 4003
-2.1629739 2.683418 -1.9585204 7 15122750 0 53 553 3986
-0 0 -0 5 15217790 0 53 600 0
-0 0 -0 4 15317700 0 53 656 0
-0 0 -0 6 15413560 0 53 560 0
-0 0 -0 5 15511400 0 53 571 0
-0 0 -0 4 15608920 0 53 579 0
-0 0 -0 5 15706630 0 53 693 0
-0 0 -0 6 15805400 0 53 603 0
-0 0 -0 5 15900910 0 53 651 0
-0 0 -0 3 16001000 0 53 677 0
-0 0 -0 5 16095210 0 53 670 0
-0 0 -0 6 16195480 0 53 674 0
-0 0 -0 5 16290710 0 53 651 0
-0 0 -0 5 16390050 0 53 663 0
-0 0 -0 3 16486220 0 53 615 0
-0 0 -0 5 16583500 0 53 646 0
-0 0 -0 5 16681720 0 53 619 0
-0 0 -0 5 16778200 0 53 646 0
-0 0 -0 6 16878170 0 53 608 0
-0 0 -0 5 16973730 0 53 612 0
-0 0 -0 6 17074050 0 53 579 0
-0 0 -0 5 17167990 0 53 569 0
-0 0 -0 4 17268370 0 53 578 0
-0 0 -0 6 17364540 0 53 577 0
-0 0 -0 5 17463150 0 53 590 0
-0 0 -0 7 17559690 0 53 620 0
-1.7216567 3.0146942 -1.9731343 6 17658080 0 53 583 4015
-0 0 -0 5 17756420 0 53 578 0
-0 0 -0 13 17852880 0 53 576 0
-0.49109015 0.90030843 -0.54601938 14 17951790 5 53 547 1183
-0.46791947 0.87061852 -0.52435058 25 18047550 8 53 597 1140
-0.43458939 0.82085049 -0.4895798 10 18147950 3 53 575 1071
-0.44156882 0.84645528 -0.50469756 14 18242380 4 53 554 1101
-0 0 -0 6 18341980 0 53 578 0
-0 0 -0 5 18437710 0 53 602 0
-0 0 -0 5 18536720 0 53 535 0
-0 0 -0 5 18633610 0 53 619 0
-0 0 -0 4 18731570 0 53 533 0
-0 0 -0 5 18829290 0 53 527 0
-0 0 -0 5 18925930 0 53 521 0
-0 0 -0 4 19024940 0 53 572 0
-0 0 -0 6 19119650 0 53 523 0
-0 0 -0 4 19219990 0 53 540 0
-0 0 -0 5 19314540 0 53 550 0
-0 0 -0 5 19414700 0 53 567 0
-0 0 -0 6 19511460 0 53 558 0
-0 0 -0 4 19608830 0 53 527 0
-0 0 -0 4 19706840 0 53 537 0
-0 0 -0 5 19804120 0 53 554 0
-0 0 -0 5 19902360 0 53 595 0
-0 0 -0 5 19998080 0 53 549 0
-0 0 -0 4 20097290 0 53 584 0
-0 0 -0 4 20191660 0 53 550 0
-0 0 -0 4 20292190 0 53 498 0
-0 0 -0 4 20387630 0 53 576 0
-0 0 -0 5 20486840 0 53 504 0
-0 0 -0 4 20583640 0 53 533 0
-0 0 -0 4 20681780 0 53 543 0
-0 0 -0 5 20780040 0 53 591 0
-0 0 -0 6 20878000 0 53 535 0
-0 0 -0 4 20976370 0 53 522 0
-0.8114208 2.5864124 -1.5291765 21 21072120 1 53 562 3134
-0.79045576 2.5748312 -1.519098 68 21171240 6 53 570 3114
-0.7504968 2.499404 -1.4702173 111 21265430 10 53 591 3017
-0.72734374 2.4774463 -1.4540918 145 21365210 13 53 561 2985
-0.70926374 2.4719014 -1.4480447 144 21461000 13 53 598 2973
-0.68216676 2.4337981 -1.4223444 224 21560040 20 53 569 2922
-0.66653478 2.4354391 -1.4208328 329 21656280 30 53 646 2919
-0.64621627 2.4194586 -1.4087385 382 21754990 35 53 733 2895
-0.62633753 2.4041569 -1.3971483 353 21853130 36 53 662 2872
-0.60688424 2.3895402 -1.3860619 338 21948350 35 53 665 2850
-0.58846623 2.3781292 -1.3769913 341 22047310 35 53 661 2832
-0.56777656 2.3565078 -1.3618735 305 22142600 31 53 660 2802
-0.54895651 2.3414495 -1.3507872 314 22242220 32 53 615 2780
-0.52957249 2.3228815 -1.3376851 268 22338350 27 53 610 2754
-0.26007092 1.1776851 -0.65133965 31 22437360 11 53 616 1392
-0.25156432 1.1733487 -0.64781219 36 22532750 12 53 579 1385
-0.24152742 1.1613436 -0.63974935 84 22631740 28 53 617 1369
-0.23456886 1.1636502 -0.64025331 83 22728650 28 53 601 1370
-0.22675781 1.1616775 -0.6382376 107 22827790 36 53 597 1366
-0.21978708 1.1638955 -0.63874149 95 22925560 32 53 586 1367
-0.21201645 1.1618242 -0.63672584 114 23021020 39 53 548 1363
-0.2051857 1.1648041 -0.6377337 107 23119530 36 53 574 1365
-0.19788893 1.1651899 -0.63722974 151 23214420 51 53 524 1364
-0.19087631 1.1672343 -0.6377337 132 23314440 45 53 629 1365
-0.18398137 1.1700897 -0.63874149 131 23410320 44 53 606 1367
-0.17757902 1.17632 -0.64176506 106 23509520 36 53 557 1373
-0.17085737 1.180806 -0.64378077 98 23605730 33 53 604 1377
-0.16360886 1.1818322 -0.64378077 108 23705520 37 53 584 1377
-0.1566973 1.1853822 -0.64529252 103 23802550 35 53 604 1380
-0.15040298 1.1940329 -0.64982784 75 23900090 25 53 542 1389
-0.14078896 1.1760687 -0.63874149 26 23997660 9 53 614 1367
-0.23511647 2.0607562 -1.157784 42 24095170 6 53 536 2397
-0.21966784 2.0363991 -1.1426662 215 24194690 30 53 643 2367
-0.20672834 2.0334125 -1.1401466 231 24289400 32 53 642 2362
-0.19350266 2.0269048 -1.1356113 210 24390890 30 53 643 2353
-0.18020967 2.0185909 -1.1300682 212 24485920 30 53 632 2342
-0.16637602 2.0024443 -1.1199896 193 24584760 27 53 604 2322
-0.15281431 1.9870656 -1.1104151 154 24682510 27 53 620 2303
-0.14012581 1.9810735 -1.1063837 181 24779860 32 53 596 2295
-0.12684023 1.9646579 -1.0963051 193 24877610 34 53 617 2275
-0.11422111 1.9559146 -1.090762 164 24975540 29 53 563 2264
-0.10116467 1.9367403 -1.0791718 141 25073640 25 53 593 2241
-0.088833757 1.9278338 -1.0736285 160 25169820 28 53 617 2230
-0.076404788 1.9136711 -1.0650618 141 25270760 25 53 563 2213
-0.064481892 1.9089245 -1.0620383 153 25365050 27 53 605 2207
-0.052472506 1.8989235 -1.0559912 116 25465030 20 53 545 2195
-0.04004778 1.8646684 -1.0358342 65 25560970 11 53 581 2155
-0.028465582 1.8562427 -1.030795 50 25659570 9 53 567 2145
-0.01706665 1.8555187 -1.0302911 52 25757410 9 53 625 2144
-0.005647019 1.8469511 -1.0252517 61 25854440 11 53 571 2134
0.0056706155 1.840041 -1.0212204 57 25953050 10 53 575 2126
0.016888851 1.8313344 -1.0161811 49 26049690 9 53 530 2116
0.027925499 1.8173778 -1.0081184 56 26148100 13 53 576 2100
0.038809311 1.8042188 -1.0005594 44 26243470 10 53 546 2085
0.049763605 1.7996294 -0.99803984 65 26342780 16 53 607 2080
0.060577881 1.792384 -0.99400848 68 26438000 16 53 587 2072
0.070934594 1.7755798 -0.98443389 59 26537980 14 53 605 2053
0.081438214 1.7664825 -0.97939461 73 26633300 17 53 617 2043
0.091921426 1.7590487 -0.97536325 63 26732290 15 53 582 2035
0.10236606 1.7524153 -0.97183579 52 26827730 12 53 528 2028
0.11245847 1.7414101 -0.96578866 53 26925960 13 53 592 2016
0.12272044 1.7346557 -0.9622612 57 27023810 14 53 563 2009
0.13316549 1.7312863 -0.96074945 59 27120760 14 53 564 2006
0.14307883 1.7218281 -0.95571017 53 27219500 13 53 579 1996
0.15288113 1.7123138 -0.95067096 44 27314400 10 53 592 1986
0.16240956 1.7010245 -0.94462383 50 27414140 12 53 547 1974
0.17232451 1.6948396 -0.94160026 41 27509100 10 53 541 1968
0.18189424 1.6860206 -0.93706495 50 27607740 12 53 552 1959
0.19087684 1.6728569 -0.93001002 30 27704430 7 53 523 1945
0.19980715 1.6605047 -0.92345899 48 27802030 11 53 553 1932
0.20891593 1.6506772 -0.91841972 37 27899370 9 53 534 1922
0.21746022 1.6373755 -0.91136479 32 27995760 9 53 528 1908
0.22643979 1.6283097 -0.90682948 46 28093850 13 53 549 1899
0.23593318 1.6234701 -0.90481377 37 28190140 11 53 552 1895
0.24498989 1.6160131 -0.9012863 42 28290180 12 53 572 1888
0.25396401 1.6085062 -0.89775884 43 28384990 13 53 597 1881
0.26285523 1.6009502 -0.89423138 30 28486180 9 53 513 1874
0.27079749 1.5882363 -0.88768035 34 28581320 10 53 554 1861
0.28053764 1.5865449 -0.88768035 58 28679360 17 53 576 1861
0.28918394 1.5788453 -0.88415289 36 28776450 11 53 569 1854
0.29678664 1.5660067 -0.87760186 38 28874260 11 53 579 1841
0.30523372 1.5582215 -0.8740744 40 28972600 12 53 585 1834
0.31308538 1.5478514 -0.86903512 46 29069810 13 53 565 1824
0.32099688 1.5382898 -0.86449981 57 29167730 17 53 565 1815
0.32753772 1.5227772 -0.85643703 58 29264810 17 53 575 1799
0.33427221 1.5089298 -0.84938204 47 29364200 14 53 563 1785
0.34104028 1.4958999 -0.84283102 45 29459860 13 53 568 1772
0.34923124 1.4895734 -0.84031141 30 29560060 9 53 612 1767
0.35776025 1.4848827 -0.83879966 34 29654350 10 53 604 1764
0.36624488 1.4801435 -0.83728784 25 29753660 7 53 540 1761
0.37362629 1.4711692 -0.83325648 34 29849790 10 53 564 1753
0.38373041 1.4730295 -0.83577609 27 29948640 8 53 575 1758
0.39142969 1.4656388 -0.83275253 21 30047780 6 53 547 1752
0.40018824 1.462376 -0.83224863 27 30143190 8 53 524 1751
0.4077605 1.4549013 -0.82922506 32 30242780 9 53 533 1745
0.41478154 1.4457278 -0.82519364 34 30338170 10 53 544 1737
0.42000872 1.43072 -0.81763482 25 30436860 8 53 544 1722
0.42556241 1.4173579 -0.81108379 25 30532010 8 53 547 1709
0.42844263 1.395722 -0.79949349 26 30632200 8 53 543 1686
0.43545291 1.3881202 -0.79646999 31 30728020 10 53 588 1680
0.44212341 1.3796623 -0.79294246 47 30827350 15 53 591 1673
0.44950974 1.3736386 -0.79092681 50 30924300 16 53 596 1669
0.45574784 1.3642982 -0.78689539 35 31022090 11 53 601 1661
0.46466595 1.3631119 -0.78790325 45 31120180 14 53 574 1663
0.47273833 1.3594189 -0.78739929 39 31217080 12 53 565 1662
0.48049513 1.3548639 -0.78639144 57 31315700 18 53 576 1660
0.48850659 1.3510774 -0.78588754 91 31410020 29 53 625 1659
0.49261895 1.3367033 -0.77883261 159 31510780 50 53 577 1645
0.49990335 1.3312286 -0.7773208 187 31606340 59 53 618 1642
0.50560081 1.3216795 -0.77328944 140 31704260 44 53 591 1634
0.51526409 1.3225782 -0.77580905 86 31801660 27 53 582 1639
0.51987642 1.3105559 -0.77026588 70 31900800 22 53 518 1628
0.52823055 1.3081427 -0.77076977 92 31998750 29 53 576 1629
0.53231847 1.2952853 -0.7647227 50 32095140 16 53 621 1617
0.54590511 1.3055483 -0.77328944 69 32193690 22 53 618 1634
0.5491851 1.2910411 -0.76623446 62 32290130 19 53 552 1620
0.55675435 1.2868539 -0.76573056 50 32389780 16 53 609 1619
0.56637442 1.2873687 -0.76825017 49 32485040 15 53 540 1624
0.56757951 1.2688805 -0.75867563 33 32584370 10 53 584 1605
0.57678092 1.2685208 -0.76069129 31 32679270 10 53 526 1609
0.58274651 1.2610353 -0.75817168 34 32778900 11 53 581 1604
0.59486771 1.2668232 -0.76421881 42 32874890 13 53 587 1616
0.6037426 1.2654893 -0.76573056 37 32972200 12 53 539 1619
0.60848981 1.2555393 -0.76169914 44 33069950 14 53 575 1611
0.61618221 1.2517821 -0.76169914 50 33166600 16 53 630 1611
0.62462199 1.2495238 -0.762707 30 33265520 9 53 573 1613
0.63149709 1.2441263 -0.76169914 51 33361910 16 53 565 1611
0.63793474 1.2379233 -0.76018739 61 33460780 19 53 581 1608
0.64352113 1.2301565 -0.75766778 46 33556380 14 53 556 1603
0.64944047 1.2231314 -0.75565207 42 33656900 13 53 591 1599
0.65407139 1.2137975 -0.75212461 35 33753170 11 53 568 1592
0.66109329 1.209003 -0.75162065 38 33852010 12 53 552 1591
0.66933542 1.2064354 -0.75262851 46 33949110 14 53 566 1593
0.67545706 1.2000461 -0.75111675 36 34045930 11 53 543 1590
0.68109816 1.1928766 -0.74910104 38 34142840 12 53 543 1586
0.68797272 1.187927 -0.74859709 39 34240480 12 53 529 1585
0.69786811 1.1881552 -0.75162065 34 34340440 11 53 565 1591
0.70338088 1.1808803 -0.74960494 44 34435910 14 53 609 1587
0.7115047 1.1780219 -0.7506128 45 34536250 14 53 532 1589
0.71871954 1.1736341 -0.7506128 43 34630010 14 53 540 1589
0.71999586 1.1596553 -0.74406177 53 34729820 17 53 616 1576
0.72572017 1.153021 -0.74255002 57 34826010 18 53 573 1573
0.73927313 1.1587485 -0.74960494 31 34924570 10 53 544 1587
0.74262387 1.1483837 -0.74557358 46 35021760 14 53 590 1579
0.74493015 1.1365756 -0.74053431 36 35119510 11 53 521 1569
0.75189 1.1319834 -0.74053431 38 35217390 12 53 555 1569
0.76604325 1.1381055 -0.74809319 29 35315280 9 53 554 1584
0.75989449 1.1141014 -0.73448724 42 35413390 13 53 574 1557
0.76083368 1.1008838 -0.72844011 50 35508960 16 53 546 1545
0.75669384 1.0806156 -0.71735376 75 35609190 25 53 554 1523
0.75033873 1.0576198 -0.70425171 72 35704090 24 53 565 1497
0.74775612 1.0403595 -0.69518107 76 35804750 26 53 591 1479
0.73890013 1.0147842 -0.68006337 88 35900340 30 53 594 1449
0.74050665 1.0039692 -0.67552805 105 35999280 36 53 626 1440
0.74304062 0.99455816 -0.67200053 111 36097260 38 53 577 1433
0.75068998 0.99204862 -0.67351234 116 36194650 39 53 586 1436
0.75676292 0.98742378 -0.67351234 88 36293970 30 53 593 1436
0.76227874 0.98207879 -0.67300838 103 36390030 35 53 602 1435
0.76935607 0.97874254 -0.67401624 92 36488820 31 53 581 1437
0.77534705 0.97400343 -0.67401624 96 36583610 33 53 592 1437
0.78239119 0.97057402 -0.67502409 89 36683440 30 53 578 1439
0.78778648 0.96508527 -0.67452019 80 36779380 27 53 548 1438
0.79259449 0.95890033 -0.67351234 92 36879080 31 53 631 1436
0.79735625 0.95269287 -0.67250448 83 36974890 28 53 630 1434
0.80151421 0.94580334 -0.67099267 93 37073170 32 53 565 1431
0.80617929 0.93955505 -0.66998488 92 37170140 31 53 657 1429
0.81079787 0.93328512 -0.66897702 97 37267450 33 53 603 1427
0.81536996 0.92699397 -0.66796917 93 37366840 32 53 631 1425
0.81989539 0.92068189 -0.66696131 100 37463210 34 53 596 1423
0.8255291 0.91563374 -0.66696131 79 37564520 27 53 601 1423
0.82822454 0.90735757 -0.6644417 72 37658450 24 53 587 1418
0.83553249 0.90416402 -0.66595346 80 37759120 27 53 591 1421
0.84165382 0.89965183 -0.66645736 97 37854530 33 53 640 1422
0.84834439 0.89572638 -0.66746521 80 37953030 27 53 521 1424
0.85322756 0.88987994 -0.66696131 102 38050110 35 53 662 1423
0.85867167 0.88462788 -0.66696131 120 38147700 41 53 609 1423
0.86287433 0.87810874 -0.66595346 89 38245360 30 53 603 1421
0.8688544 0.87341088 -0.66645736 96 38341600 33 53 603 1422
0.87419719 0.86806327 -0.66645736 102 38440360 35 53 619 1422
0.88320202 0.86631685 -0.66948092 87 38535760 29 53 635 1428
0.88850105 0.86088133 -0.66948092 94 38635970 32 53 590 1428
0.89376658 0.85541338 -0.66948092 96 38730630 33 53 536 1428
0.89962536 0.85050744 -0.66998488 87 38831670 29 53 596 1429
0.9041965 0.84438109 -0.66948092 78 38926960 26 53 584 1428
0.91126287 0.84057659 -0.67099267 96 39025450 33 53 587 1431
0.91385257 0.83263904 -0.66897702 96 39122180 33 53 599 1427
0.91958565 0.8275947 -0.66948092 88 39219600 30 53 598 1428
0.92271191 0.82021254 -0.66796917 93 39317890 32 53 571 1425
0.925134 0.81225252 -0.66595346 90 39414080 31 53 618 1421
0.93075228 0.80712742 -0.66645736 78 39513460 26 53 625 1422
0.93568724 0.80140126 -0.66645736 83 39608320 28 53 619 1422
0.93992817 0.79508621 -0.66595346 99 39708510 34 53 608 1421
0.94478905 0.78930396 -0.66595346 94 39803380 32 53 639 1421
0.95094538 0.78459311 -0.66696131 81 39902270 27 53 619 1423
0.95641053 0.77928996 -0.66746521 87 39998530 29 53 588 1424
0.96386307 0.77557635 -0.66948092 84 40097600 28 53 604 1428
0.96995485 0.77072412 -0.67048877 85 40195310 29 53 557 1430
0.97330803 0.76368988 -0.66948092 75 40292200 25 53 529 1428
0.98070401 0.75982302 -0.67149663 76 40390510 26 53 594 1432
0.98466241 0.75326556 -0.67099267 79 40486170 27 53 535 1431
0.99064291 0.74825257 -0.67200053 94 40585870 32 53 580 1433
0.99383199 0.74112552 -0.67099267 90 40680120 31 53 585 1431
0.99905562 0.7355265 -0.67149663 78 40780120 26 53 603 1432
1.0007578 0.72734761 -0.66948092 91 40875680 31 53 611 1428
1.0052019 0.72119337 -0.66948092 90 40975390 31 53 575 1428
1.0067912 0.7130115 -0.66746521 93 41072500 32 53 609 1424
1.0118545 0.70731634 -0.66796917 79 41170200 27 53 608 1425
1.0133343 0.69912857 -0.66595346 80 41267930 27 53 573 1421
1.0190315 0.69387186 -0.66696131 88 41364940 30 53 618 1423
1.0161071 0.68277913 -0.66192204 67 41463040 23 53 588 1413
1.0224351 0.67796648 -0.66343385 81 41560170 27 53 572 1416
1.0309087 0.67452341 -0.66645736 89 41659640 30 53 572 1422
1.0328529 0.66677684 -0.6649456 82 41754700 28 53 622 1419
1.0325572 0.657637 -0.66192204 63 41854870 21 53 564 1413
1.0409576 0.65405196 -0.6649456 79 41950600 27 53 595 1419
1.0449512 0.64765245 -0.6649456 70 42049670 24 53 592 1419
1.0511144 0.64258307 -0.66645736 79 42146160 27 53 571 1422
1.0572548 0.63746238 -0.66796917 81 42243350 27 53 599 1425
1.0574371 0.62875104 -0.6654495 66 42341860 22 53 583 1420
1.0627642 0.62312663 -0.66645736 81 42437470 27 53 586 1422
1.0650733 0.61572731 -0.6654495 75 42537490 25 53 651 1420
1.0688312 0.60918057 -0.6654495 84 42632670 28 53 621 1420
1.0702915 0.60133857 -0.66393775 85 42732360 29 53 611 1417
1.0754713 0.595599 -0.6649456 67 42827830 23 53 636 1419
1.0768327 0.58774436 -0.66343385 63 42927410 21 53 574 1416
1.0796586 0.58071578 -0.66292989 84 43022300 28 53 569 1415
1.0816762 0.57326919 -0.66192204 64 43120120 22 53 587 1413
1.0935897 0.57103026 -0.66746521 85 43216160 29 53 614 1424
1.0917 0.56153667 -0.66393775 80 43314310 27 53 588 1417
1.0935849 0.55404472 -0.66292989 78 43412330 26 53 578 1415
1.0954192 0.54655087 -0.66192204 79 43509200 27 53 567 1413
1.101851 0.54134691 -0.66393775 89 43608310 30 53 621 1417
1.0958272 0.53005004 -0.65789068 72 43703540 24 53 550 1405
1.1006176 0.52406096 -0.65889853 82 43804010 28 53 570 1407
1.0999044 0.5154599 -0.65637887 82 43899420 28 53 550 1402
1.1006949 0.50761294 -0.65486711 78 43999740 26 53 616 1399
1.105361 0.50156558 -0.65587497 79 44095620 27 53 595 1401
1.1099942 0.49548006 -0.65688282 69 44193720 23 53 599 1403
1.1145943 0.48935652 -0.65789068 60 44290660 20 53 583 1405
1.1207461 0.48388204 -0.65990633 85 44386970 29 53 576 1409
1.1221049 0.47631902 -0.65889853 71 44485330 24 53 604 1407
1.1210229 0.46775651 -0.65637887 67 44580690 23 53 577 1402
1.1286643 0.46284199 -0.65940243 91 44680610 31 53 576 1408
1.1234757 0.45266908 -0.65436316 68 44775520 23 53 594 1398
1.1206132 0.44353428 -0.65083569 73 44875040 25 53 609 1391
1.1233135 0.43664998 -0.65083569 67 44970540 23 53 629 1391
1.1267782 0.43005833 -0.65133965 74 45070760 25 53 596 1392
1.1221199 0.42039925 -0.64680433 76 45166700 26 53 564 1383
1.1246783 0.41350612 -0.64680433 87 45264290 29 53 560 1383
1.1263822 0.40630326 -0.64630038 64 45361450 22 53 595 1382
1.1321096 0.40054107 -0.64831609 67 45458460 23 53 633 1386
1.1369929 0.39443964 -0.64982784 76 45557880 26 53 621 1389
1.1442961 0.38913092 -0.6528514 73 45653620 25 53 607 1395
1.144205 0.38127983 -0.65133965 80 45753560 27 53 560 1392
1.1539096 0.37667421 -0.65587497 75 45849000 25 53 559 1401
1.1586663 0.37037918 -0.65738672 59 45949130 20 53 579 1404
1.165037 0.36455801 -0.65990633 84 46044090 28 53 553 1409
1.1589963 0.35486272 -0.65486711 68 46142610 23 53 598 1399
1.1578435 0.34674889 -0.6528514 77 46239370 26 53 542 1395
1.1475201 0.33598036 -0.64529252 45 46337340 15 53 570 1380
1.1495601 0.328933 -0.64529252 58 46435970 20 53 599 1380
1.1515567 0.32187325 -0.64529252 84 46532820 28 53 572 1380
1.1510111 0.3141157 -0.64378077 66 46631830 22 53 580 1377
1.1495794 0.3061536 -0.64176506 69 46727120 23 53 615 1373
1.1472578 0.2980026 -0.63924545 61 46826760 21 53 582 1368
1.1465536 0.29031804 -0.6377337 61 46921740 21 53 577 1365
1.1508284 0.28390157 -0.63924545 54 47021310 18 53 528 1368
1.1550674 0.27744353 -0.6407572 60 47117190 20 53 600 1371
1.1517031 0.26916456 -0.6377337 72 47216630 24 53 543 1365
1.154175 0.26228532 -0.6382376 66 47314400 22 53 581 1366
1.1549195 0.25501111 -0.6377337 81 47412130 27 53 584 1365
1.1615283 0.2490132 -0.6407572 60 47510070 20 53 568 1371
1.157962 0.24081928 -0.6377337 62 47606470 21 53 567 1365
1.1585712 0.23353776 -0.63722974 60 47705730 20 53 616 1364
1.1633725 0.22709112 -0.63924545 67 47802160 23 53 638 1368
1.1596528 0.21897984 -0.63622189 66 47902780 22 53 558 1362
1.1541787 0.21061032 -0.63219053 57 47997850 19 53 629 1354
1.1571501 0.20382649 -0.63319832 67 48097360 23 53 584 1356
1.1549736 0.19613931 -0.63118267 64 48192440 22 53 559 1352
1.1544509 0.18876767 -0.63017482 78 48291280 26 53 562 1350
1.1572936 0.18195122 -0.63118267 56 48387520 19 53 541 1352
1.159242 0.1749769 -0.63168657 89 48484910 30 53 646 1353
1.1628579 0.16823521 -0.63319832 68 48583470 23 53 627 1356
1.1638683 0.16109689 -0.63319832 93 48680030 32 53 559 1356
1.1674033 0.15429559 -0.63471013 77 48780670 26 53 610 1359
1.168328 0.14712964 -0.63471013 74 48875860 25 53 592 1359
1.1674938 0.13975044 -0.63370228 71 48975310 24 53 526 1357
1.1726199 0.13307714 -0.63622189 64 49070320 22 53 595 1362
1.171697 0.12569293 -0.63521403 64 49168700 22 53 605 1360
1.1750239 0.11876532 -0.63672584 87 49265090 29 53 579 1363
1.1757305 0.11155327 -0.63672584 72 49363180 24 53 609 1363
1.1755326 0.10425953 -0.63622189 64 49461390 22 53 605 1362
1.1752895 0.096972413 -0.63571799 72 49558610 24 53 588 1361
1.1741401 0.089625277 -0.63471013 75 49657600 25 53 630 1359
1.1755295 0.082480848 -0.63521403 66 49753660 22 53 588 1360
1.1717038 0.074984558 -0.63269442 58 49853430 20 53 569 1355
1.1730042 0.067844786 -0.63319832 59 49947620 20 53 592 1356
1.1733984 0.060646091 -0.63319832 62 50047900 21 53 586 1356
1.1746112 0.053485602 -0.63370228 63 50143010 21 53 625 1357
1.1740543 0.046242118 -0.63319832 58 50242110 20 53 579 1356
1.1708629 0.038917791 -0.63118267 70 50338870 24 53 605 1352
1.1710796 0.031732779 -0.63118267 64 50436330 22 53 582 1352
1.1721159 0.024565874 -0.63168657 59 50534470 20 53 587 1353
1.1748354 0.01741546 -0.63319832 58 50629880 20 53 596 1356
1.1723291 0.01018036 -0.63168657 51 50729590 17 53 642 1353
1.1766882 0.0030039221 -0.63420618 46 50825560 16 53 583 1358
1.1775482 -0.0042180512 -0.63471013 65 50925520 22 53 598 1359
1.1809551 -0.011472046 -0.63672584 57 51020870 19 53 560 1363
1.1877717 -0.01881798 -0.6407572 78 51120630 26 53 605 1371
1.1789982 -0.025927734 -0.63571799 49 51216190 17 53 583 1361
1.1796803 -0.033184532 -0.63622189 60 51315250 20 53 597 1362
1.1794546 -0.040422291 -0.63622189 66 51412320 22 53 605 1362
1.1817735 -0.047759581 -0.6377337 68 51510550 23 53 554 1365
1.1788697 -0.054892968 -0.63622189 58 51608440 20 53 569 1362
1.1767855 -0.062036797 -0.63521403 69 51705390 23 53 577 1360
1.1755203 -0.069206685 -0.63471013 67 51805070 23 53 591 1359
1.1793835 -0.076692514 -0.63722974 59 51899730 20 53 603 1364
1.1745825 -0.083626911 -0.63471013 58 52000370 20 53 596 1359
1.1783537 -0.09115959 -0.63722974 52 52094690 18 53 589 1364
1.1794938 -0.09852954 -0.6382376 58 52193380 20 53 572 1366
1.1745651 -0.10538496 -0.63571799 48 52289990 16 53 539 1361
1.1747562 -0.11267124 -0.63622189 52 52387520 18 53 596 1362
1.1723239 -0.11970419 -0.63521403 50 52484420 17 53 607 1360
1.1707085 -0.12680337 -0.63471013 51 52582060 17 53 594 1359
1.1707667 -0.13408139 -0.63521403 68 52681090 23 53 561 1360
1.1750679 -0.14187667 -0.6382376 61 52778410 21 53 581 1366
1.1793174 -0.14972974 -0.64126116 67 52877820 23 53 575 1372
1.1783764 -0.15696308 -0.64126116 67 52971710 23 53 563 1372
1.1791024 -0.16442676 -0.64226902 54 53072650 18 53 608 1374
1.180636 -0.1720286 -0.64378077 67 53168140 23 53 596 1377
1.1804124 -0.17939822 -0.64428467 49 53267580 17 53 541 1378
1.1818494 -0.18703926 -0.64579648 52 53363920 18 53 595 1381
1.1789745 -0.19400926 -0.64478862 52 53462050 18 53 582 1379
1.1760587 -0.20095104 -0.64378077 66 53560420 22 53 595 1377
1.1739528 -0.20801389 -0.64327687 57 53656860 19 53 597 1376
1.1735041 -0.21536796 -0.64378077 55 53755610 19 53 583 1377
1.170463 -0.22224447 -0.64277291 58 53850360 20 53 563 1375
1.1733162 -0.23024794 -0.64529252 59 53949890 20 53 576 1380
1.1744218 -0.23795404 -0.64680433 66 54044850 22 53 555 1383
1.1729395 -0.24515568 -0.64680433 47 54145390 16 53 578 1383
1.1714133 -0.2523481 -0.64680433 63 54241780 21 53 571 1383
1.1698428 -0.25953099 -0.64680433 63 54341130 21 53 580 1383
1.1707554 -0.26727742 -0.64831609 76 54438360 26 53 556 1386
1.1632053 -0.27308217 -0.64478862 75 54536450 25 53 543 1379
1.1564682 -0.27900583 -0.64176506 74 54632940 25 53 580 1373
1.1497023 -0.28485712 -0.63874149 60 54728560 20 53 538 1367
1.1445832 -0.29105935 -0.63672584 59 54827890 20 53 593 1363
1.1394315 -0.29720953 -0.63471013 69 54923810 23 53 566 1359
1.1425948 -0.30552718 -0.6377337 46 55024400 16 53 598 1365
1.1381985 -0.31185099 -0.63622189 72 55119630 24 53 572 1362
1.1387595 -0.31952557 -0.6377337 68 55219070 23 53 608 1365
1.1409301 -0.32769334 -0.64025331 63 55314930 21 53 542 1370
1.1447011 -0.33638451 -0.64378077 71 55413300 24 53 648 1377
1.1426156 -0.34340194 -0.64378077 69 55509740 23 53 631 1377
1.145443 -0.35192168 -0.64680433 55 55607780 19 53 586 1383
1.1465598 -0.35997382 -0.64882004 66 55704210 22 53 638 1387
1.1451523 -0.36726484 -0.64932394 74 55801420 25 53 572 1388
1.1428773 -0.37428445 -0.64932394 54 55900790 18 53 589 1388
1.1438375 -0.38238093 -0.65133965 76 55996780 26 53 601 1392
1.1463768 -0.39105877 -0.65436316 72 56097390 24 53 603 1398
1.1439558 -0.39808545 -0.65436316 66 56192360 22 53 583 1398
1.1414917 -0.40509713 -0.65436316 65 56293220 22 53 566 1398
1.1389846 -0.41209355 -0.65436316 74 56389460 25 53 590 1398
1.1340021 -0.41818124 -0.6528514 63 56488020 21 53 603 1395
1.129797 -0.42452604 -0.65184355 75 56584080 25 53 587 1393
1.1247495 -0.4305273 -0.6503318 60 56680830 20 53 557 1390
1.1236972 -0.43804577 -0.65133965 71 56779670 24 53 584 1392
1.1089394 -0.44016904 -0.64378077 66 56875980 22 53 574 1377
1.1054164 -0.44664258 -0.64327687 65 56974870 22 53 577 1376
1.1010565 -0.4527621 -0.64226902 61 57071260 21 53 606 1374
1.0982575 -0.45950952 -0.64226902 64 57171710 22 53 612 1374
1.0954174 -0.46623966 -0.64226902 90 57268480 31 53 612 1374
1.1068125 -0.47910914 -0.65133965 56 57367440 19 53 662 1392
1.1038518 -0.48589137 -0.65133965 82 57463610 28 53 579 1392
1.1032163 -0.49371061 -0.6528514 68 57562150 23 53 631 1395
1.0978061 -0.49940076 -0.65133965 77 57659030 26 53 595 1392
1.1033506 -0.51010287 -0.65688282 77 57756070 26 53 591 1403
1.1025468 -0.51796198 -0.65839458 69 57855260 23 53 619 1406
1.1009079 -0.52545935 -0.65940243 59 57950420 20 53 592 1408
1.0999961 -0.53333187 -0.66091418 68 58050870 23 53 608 1411
1.10058 -0.54197407 -0.66343385 58 58145900 20 53 639 1416
1.0941416 -0.54717565 -0.66141814 70 58246620 24 53 609 1412
1.0946169 -0.55582911 -0.66393775 60 58341710 20 53 581 1417
1.091954 -0.56292981 -0.6644417 56 58440440 19 53 533 1418
1.0884794 -0.56961936 -0.6644417 63 58538260 21 53 576 1418
1.081147 -0.57426661 -0.66192204 57 58635290 19 53 552 1413
1.082929 -0.58375144 -0.6654495 84 58733760 28 53 561 1420
1.0808436 -0.59121215 -0.66645736 87 58829930 29 53 629 1422
1.0711492 -0.59448785 -0.66242599 59 58929640 20 53 566 1414
1.0622089 -0.59808969 -0.65889853 69 59025750 23 53 592 1407
1.0637733 -0.6075877 -0.66242599 66 59125070 22 53 626 1414
1.0622691 -0.61539942 -0.66393775 67 59219600 23 53 610 1417
1.0599637 -0.62277889 -0.6649456 64 59319620 22 53 615 1419
1.0561224 -0.62927103 -0.6649456 52 59414180 18 53 628 1419
1.0529813 -0.63618511 -0.6654495 46 59513090 16 53 602 1420
1.0483208 -0.6421839 -0.6649456 78 59609900 26 53 584 1419
1.0450951 -0.64905888 -0.6654495 70 59708320 24 53 590 1420
1.0403613 -0.65500003 -0.6649456 58 59806880 20 53 573 1419
1.0319504 -0.65858901 -0.66192204 59 59903050 20 53 558 1413
1.0293416 -0.66584486 -0.66292989 72 60002810 24 53 584 1415
1.0259596 -0.67262089 -0.66343385 64 60097800 22 53 561 1416
1.0261337 -0.68176562 -0.66645736 59 60198380 20 53 615 1422
1.0190625 -0.68612325 -0.6644417 71 60292530 24 53 575 1418
1.0155475 -0.69284898 -0.6649456 77 60392810 26 53 542 1419
1.0169665 -0.70298892 -0.66897702 66 60489100 22 53 595 1427
1.0154665 -0.71119392 -0.67099267 62 60586590 21 53 544 1431
1.0089682 -0.71591461 -0.66948092 72 60683650 24 53 584 1428
1.0094707 -0.72561461 -0.67300838 71 60780100 24 53 612 1435
1.0029026 -0.73027235 -0.67149663 66 60879860 22 53 623 1432
0.9935323 -0.73282975 -0.66796917 74 60975540 25 53 567 1425
0.99178761 -0.74097639 -0.66998488 55 61076530 19 53 630 1429
0.98653293 -0.74652761 -0.66948092 67 61171020 23 53 575 1428
0.98262 -0.75309134 -0.66998488 61 61271180 21 53 571 1429
0.97524852 -0.75699157 -0.66796917 77 61366220 26 53 615 1425
0.97058535 -0.76296133 -0.66796917 63 61465260 21 53 584 1425
0.96588564 -0.76890236 -0.66796917 61 61560930 21 53 623 1425
0.96114957 -0.77481443 -0.66796917 71 61659640 24 53 615 1425
0.95637733 -0.78069735 -0.66796917 61 61756900 21 53 582 1425
0.95223552 -0.78710032 -0.66847306 67 61854370 23 53 586 1426
0.95070356 -0.79569578 -0.67099267 49 61953100 17 53 586 1431
0.95174056 -0.8065322 -0.67552805 70 62049720 24 53 592 1440
0.96514904 -0.82808137 -0.6896379 60 62150730 20 53 583 1468
0.95939708 -0.83342224 -0.689134 65 62245570 22 53 617 1467
1.048416 -0.92188591 -0.7622031 41 62345410 13 53 639 1612
1.0705094 -0.95296532 -0.78387183 38 62440300 12 53 583 1655
1.080699 -0.97395414 -0.79646999 30 62539940 9 53 548 1680
1.0836446 -0.98870724 -0.80352491 24 62636430 8 53 560 1694
1.0820037 -0.99943537 -0.80705237 42 62734740 13 53 595 1701
1.0884817 -1.0178406 -0.81713086 37 62832530 12 53 568 1721
1.0903786 -1.0322108 -0.82368189 45 62930550 13 53 531 1734
1.0834004 -1.0382849 -0.82317799 32 63028830 9 53 586 1733
1.0782503 -1.0461144 -0.82418585 23 63123750 7 53 533 1735
1.0742787 -1.0551292 -0.8262015 30 63224610 9 53 563 1739
1.0573605 -1.0513589 -0.81763482 27 63319420 9 53 536 1722
1.058812 -1.0657843 -0.82418585 35 63420680 10 53 565 1735
1.0468017 -1.0667186 -0.81965047 35 63516170 11 53 580 1726
1.0438479 -1.0768387 -0.82267404 45 63615310 13 53 624 1732
1.037221 -1.0832233 -0.82267404 47 63713520 14 53 578 1732
1.0388739 -1.0983435 -0.82972902 36 63811810 11 53 595 1746
1.0256211 -1.0977616 -0.82418585 31 63910460 9 53 574 1735
1.0270767 -1.1129117 -0.83124077 34 64007640 10 53 529 1749
1.018481 -1.1172796 -0.82972902 29 64106650 8 53 588 1746
1.0168142 -1.1292793 -0.83426434 33 64201850 10 53 576 1755
1.00182 -1.1264699 -0.82720935 29 64302380 8 53 570 1741
1.0080162 -1.147507 -0.83879966 33 64396920 10 53 568 1764
0.99755585 -1.1497597 -0.83577609 29 64496540 8 53 605 1758
0.9938587 -1.1597905 -0.83879966 37 64593320 11 53 548 1764
0.98728234 -1.1665256 -0.83930355 43 64692090 13 53 579 1765
0.97955143 -1.1718993 -0.83879966 27 64790350 8 53 642 1764
0.97729766 -1.1838773 -0.84333497 22 64887820 6 53 584 1773
0.96509671 -1.1838317 -0.83879966 21 64987700 6 53 622 1764
0.96106893 -1.1937644 -0.84182316 26 65083510 8 53 539 1770
0.95426428 -1.2003145 -0.84232712 25 65182430 7 53 581 1771
0.93887001 -1.1959648 -0.83476824 33 65277740 10 53 596 1756
0.92939442 -1.1989746 -0.83275253 20 65377940 6 53 574 1752
0.92675155 -1.2108227 -0.83728784 35 65473690 10 53 601 1761
0.90887469 -1.2027155 -0.82720935 19 65572880 6 53 549 1741
0.8947534 -1.199277 -0.82065833 19 65670600 6 53 582 1728
0.89763814 -1.2186425 -0.83073682 19 65769210 6 53 558 1748
0.89014381 -1.2241273 -0.83073682 23 65866650 7 53 545 1748
0.88917375 -1.2386808 -0.83728784 28 65963220 8 53 582 1761
0.87555498 -1.2356628 -0.83124077 28 66061730 8 53 589 1749
0.87638527 -1.2530355 -0.83980751 24 66156190 7 53 553 1766
0.8686803 -1.2583894 -0.83980751 26 66256630 8 53 547 1766
0.87214559 -1.2801018 -0.85139775 35 66352820 10 53 540 1789
0.86765355 -1.2904431 -0.85492522 23 66452930 7 53 555 1796
0.85828429 -1.2935849 -0.85341346 17 66548850 5 53 594 1793
0.84511822 -1.2908832 -0.84787029 23 66647040 7 53 562 1782
0.84938693 -1.3148956 -0.86097234 29 66743840 8 53 576 1808
0.83246833 -1.3062524 -0.85139775 22 66842110 6 53 578 1789
0.81614858 -1.2981821 -0.84232712 13 66940620 4 53 564 1771
0.81911194 -1.320771 -0.85442132 21 67037290 6 53 562 1795
0.8146044 -1.3316629 -0.85845268 26 67135600 8 53 556 1803
0.79971355 -1.3255496 -0.85089386 24 67230460 7 53 629 1788
0.80218339 -1.3482356 -0.86298805 15 67330830 4 53 503 1812
0.809659 -1.3799355 -0.88112932 25 67425920 7 53 546 1848
0.79814357 -1.379647 -0.87760186 24 67527510 7 53 561 1841
0.79094929 -1.386768 -0.87911361 17 67623300 5 53 554 1844
0.79302764 -1.4104067 -0.89171171 26 67721640 8 53 564 1869
0.78687537 -1.4197764 -0.89473528 29 67818470 8 53 582 1875
0.72090316 -1.320027 -0.82519364 27 67916260 8 53 576 1737
0.70745784 -1.3145436 -0.81864268 25 68013230 8 53 592 1724
0.75330973 -1.420292 -0.88566464 27 68109470 8 53 598 1857
0.74858886 -1.4325387 -0.89070386 22 68209100 6 53 572 1867
0.72037566 -1.3994943 -0.86601156 26 68304440 8 53 603 1818
0.70355576 -1.3877184 -0.85542917 11 68404980 3 53 519 1797
0.72170705 -1.4453027 -0.89019996 15 68500210 4 53 566 1866
0.72199112 -1.4682972 -0.90229416 23 68601150 7 53 605 1890
0.714854 -1.476585 -0.90481377 23 68696690 7 53 601 1895
0.70019472 -1.4692531 -0.89725488 21 68795560 6 53 530 1880
0.69631261 -1.4844645 -0.90430987 16 68893200 5 53 540 1894
0.6911816 -1.4973316 -0.90985304 18 68991430 5 53 569 1905
0.63544536 -1.3993542 -0.84434283 14 69090420 4 53 619 1775
0.66922361 -1.4978181 -0.90481377 17 69186810 5 53 537 1895
0.63738149 -1.4505194 -0.87205869 21 69286830 6 53 565 1830
0.64598459 -1.4948223 -0.89775884 10 69382220 3 53 584 1881
0.63612324 -1.4971685 -0.89675099 17 69481980 5 53 550 1879
0.65228492 -1.561592 -0.93504924 19 69577360 5 53 552 1955
0.63512868 -1.5471942 -0.92345899 26 69677200 6 53 574 1932
0.60975301 -1.5118268 -0.8987667 18 69774020 5 53 565 1883
0.60780132 -1.5340017 -0.91035694 21 69872680 6 53 628 1906
0.58298975 -1.4982749 -0.88566464 19 69970290 6 53 578 1857
0.59016734 -1.544571 -0.91237265 15 70067230 4 53 582 1910
0.52897584 -1.4107299 -0.82670546 23 70166800 7 53 590 1740
0.57236534 -1.5549382 -0.91438836 19 70261640 6 53 578 1914
0.55898917 -1.5478635 -0.90783733 18 70362000 5 53 595 1901
0.56972539 -1.6082367 -0.94311208 21 70456690 5 53 573 1971
0.57519376 -1.6557474 -0.97032398 18 70557160 4 53 560 2025
0.56530267 -1.6600629 -0.97082794 22 70653870 5 53 569 2026
0.50438386 -1.5119709 -0.87760186 14 70753130 4 53 545 1841
0.55834574 -1.7079123 -0.99602413 25 70850220 6 53 595 2076
0.54944026 -1.7162404 -0.9990477 25 70948630 6 53 548 2082
0.53190488 -1.6973318 -0.98544174 13 71046670 3 53 533 2055
0.43486962 -1.4190477 -0.8136034 16 71143610 5 53 570 1714
0.42366511 -1.4134182 -0.80856413 15 71243170 5 53 574 1704
0.40498713 -1.382018 -0.78790325 16 71337460 5 53 562 1663
0.50083387 -1.7472285 -1.0081184 19 71437870 5 53 514 2100
0.47678542 -1.7028706 -0.97939461 19 71532210 5 53 567 2043
0.4549005 -1.6641159 -0.95419842 10 71631580 2 53 583 1993
0.37295961 -1.3990498 -0.79243857 12 71727940 4 53 622 1672
0.47221223 -1.8141497 -1.0413774 16 71826350 3 53 561 2166
0.45723474 -1.8019465 -1.0323068 16 71923470 3 53 560 2148
0 -0 -0 14 72020130 0 53 553 0
0.44117433 -1.8326093 -1.0474244 21 72118620 4 53 586 2178
0.43189865 -1.8436899 -1.0524638 27 72215260 5 53 572 2188
0.40517226 -1.7789446 -1.0121497 11 72314550 3 53 563 2108
0.40455624 -1.8277718 -1.0398656 18 72409730 3 53 597 2163
0.29821333 -1.3894913 -0.7768169 16 72509480 5 53 577 1641
0.39006293 -1.8706421 -1.0625422 19 72604540 3 53 513 2208
0.27546871 -1.3651124 -0.76018739 15 72704620 5 53 574 1608
0.36241168 -1.8515574 -1.0484324 14 72800420 2 53 592 2180
0.3652513 -1.9284165 -1.0927777 18 72899160 3 53 618 2268
0.24795121 -1.3572091 -0.75262851 10 72996750 3 53 555 1593
0.33446109 -1.8927827 -1.0690932 11 73094210 2 53 548 2221
0.2318607 -1.3635551 -0.75464422 12 73192320 4 53 555 1597
0.32498491 -1.9802632 -1.1184778 11 73289140 1 53 560 2319
0.30944455 -1.960893 -1.1058798 16 73389470 3 53 583 2294
0.30065957 -1.9841021 -1.1184778 7 73484830 1 53 546 2319
0.29072726 -2.0012937 -1.1275485 13 73584670 2 53 582 2337
0.27652818 -1.9893532 -1.1194857 7 73680440 1 53 568 2321
0.1760253 -1.3300704 -0.73045582 14 73779530 4 53 526 1549
0.16655149 -1.3208435 -0.72440875 11 73875210 4 53 567 1537
0.15813226 -1.3192681 -0.72289693 10 73974010 4 53 565 1534
0.14579509 -1.2833152 -0.7012282 18 74072010 6 53 577 1491
0.13903794 -1.2944899 -0.70727527 13 74169310 5 53 570 1503
0.12994781 -1.2841483 -0.70072424 9 74267600 3 53 563 1490
0.12289375 -1.2935193 -0.70576352 7 74364880 3 53 570 1500
0.11216454 -1.2632796 -0.68762219 12 74465690 4 53 561 1464
0.10578328 -1.2802976 -0.69719678 8 74559830 3 53 601 1483
0.095582716 -1.2507824 -0.67955941 11 74660670 4 53 553 1448
0 -0 -0 8 74756910 0 53 553 0
0.081804708 -1.2759945 -0.69366932 11 74855650 4 53 545 1476
0 -0 -0 6 74952990 0 53 585 0
0.066094346 -1.2760398 -0.69316536 7 75049380 3 53 568 1475
0.058789849 -1.2876377 -0.69971639 20 75148190 7 53 548 1488
0.0512399 -1.2966045 -0.70475566 16 75244560 6 53 559 1498
0.043163523 -1.2934415 -0.70273995 22 75343740 8 53 561 1494
0.035201699 -1.2928187 -0.70223606 10 75440960 4 53 577 1493
0 -0 -0 10 75540570 0 53 577 0
0.019306164 -1.2914261 -0.7012282 13 75635810 5 53 618 1491
0.01138176 -1.2915202 -0.7012282 9 75737170 3 53 577 1491
0.0034569271 -1.2915658 -0.7012282 10 75832480 4 53 593 1491
-0 -0 -0 5 75932230 0 53 538 0
-0.012421606 -1.2949657 -0.70324391 7 76028310 3 53 584 1495
-0.02035464 -1.2940015 -0.70273995 8 76126380 3 53 572 1494
-0.02781371 -1.2705361 -0.689134 8 76224860 3 53 542 1467
-0.035747591 -1.2755221 -0.69215757 6 76320680 2 53 594 1473
-0.042636566 -1.2467904 -0.67552805 6 76420950 2 53 564 1440
-0 -0 -0 6 76516100 0 53 565 0
-0 -0 -0 5 76617350 0 53 559 0
-0.065445855 -1.2432066 -0.67401624 10 76711810 4 53 494 1437
-0.072131053 -1.2263974 -0.6644417 8 76811900 3 53 541 1418
-0.07987415 -1.2293798 -0.66645736 9 76907310 3 53 539 1422
-0.08777684 -1.2340364 -0.66948092 11 77006450 4 53 500 1428
-0.096982837 -1.2550063 -0.68207902 13 77102660 5 53 540 1453
-0.10503516 -1.2586918 -0.68459868 7 77200730 3 53 619 1458
-0.11275636 -1.2580236 -0.68459868 17 77299020 6 53 576 1458
-0.12071715 -1.2598878 -0.68611044 7 77395400 3 53 576 1461
-0.12939741 -1.2685769 -0.69165361 6 77495140 2 53 553 1472
-0.13717882 -1.267759 -0.69165361 6 77590250 2 53 540 1472
-0 -0 -0 5 77689390 0 53 562 0
-0.15272585 -1.2659801 -0.69165361 6 77785560 2 53 619 1472
-0 -0 -0 5 77884120 0 53 549 0
-0 -0 -0 6 77980990 0 53 550 0
-0 -0 -0 4 78077820 0 53 567 0
-0.18362518 -1.2609959 -0.69114971 5 78174190 2 53 563 1471
-0.19084461 -1.256429 -0.689134 13 78272200 5 53 566 1467
-0.19814877 -1.2526743 -0.68762219 15 78370510 5 53 551 1464
-0.20471863 -1.2446152 -0.68359083 6 78466010 2 53 523 1456
-0 -0 -0 6 78565520 0 53 513 0
-0.22147191 -1.2505163 -0.68863004 14 78660630 5 53 602 1466
-0 -0 -0 4 78760720 0 53 555 0
-0.23792072 -1.2536459 -0.69215757 8 78856160 3 53 571 1473
-0.24858147 -1.267423 -0.7012282 12 78956390 4 53 592 1491
-0.25447953 -1.2565594 -0.69568503 13 79053040 5 53 609 1480
-0.26323819 -1.2600485 -0.69870853 15 79151780 5 53 558 1486
-0.26988029 -1.2533419 -0.69568503 5 79249420 2 53 507 1480
-0.27923888 -1.2592539 -0.70022035 13 79344630 5 53 545 1489
-0.28772464 -1.2608861 -0.70223606 8 79444470 3 53 565 1493
-0.29761472 -1.2683496 -0.70777923 9 79539580 3 53 582 1504
-0 -0 -0 5 79640490 0 53 569 0
-0 -0 -0 4 79735210 0 53 478 0
-0.31667629 -1.2459086 -0.69770074 8 79834970 3 53 564 1484
-0.32821828 -1.2589916 -0.70677137 6 79932110 2 53 556 1502
-0.32972196 -1.2335813 -0.69266146 6 80030870 2 53 589 1474
-0.34228081 -1.249869 -0.70374781 6 80127480 2 53 537 1496
-0 -0 -0 6 80226800 0 53 571 0
-0.35711825 -1.2439135 -0.70273995 14 80324070 5 53 560 1494
-0.36135057 -1.2300923 -0.69568503 14 80420700 5 53 619 1480
-0.37433586 -1.2460577 -0.70677137 8 80521060 3 53 575 1502
-0 -0 -0 5 80616280 0 53 509 0
-0 -0 -0 5 80716170 0 53 541 0
-0.39510697 -1.2323736 -0.70273995 8 80811700 3 53 528 1494
-0 -0 -0 5 80911320 0 53 533 0
-0.40665475 -1.216778 -0.69618893 15 81007860 5 53 567 1481
-0.41355756 -1.2126242 -0.69518107 7 81107620 3 53 555 1479
-0.42268696 -1.2149607 -0.69820464 8 81205010 3 53 564 1485
-0.42668054 -1.2025715 -0.69215757 6 81302080 2 53 585 1473
-0 -0 -0 5 81399690 0 53 588 0
-0.4431923 -1.2021097 -0.69518107 6 81497280 2 53 558 1479
-0.45146814 -1.2017946 -0.69669288 15 81596990 5 53 528 1482
-0.45821834 -1.1973877 -0.69568503 13 81692150 5 53 573 1480
-0.46711987 -1.1985794 -0.69820464 15 81792040 5 53 559 1485
-0.47446543 -1.1956908 -0.69820464 7 81888610 3 53 594 1485
-0.48082566 -1.190353 -0.69669288 5 81988000 2 53 530 1482
-0 -0 -0 7 82085060 0 53 593 0
-0 -0 -0 5 82182990 0 53 550 0
-0.50299191 -1.1820962 -0.69719678 6 82281710 2 53 546 1483
-0.50373667 -1.1639181 -0.68762219 7 82378170 3 53 530 1464
-0.50913435 -1.1568502 -0.68510258 10 82476940 4 53 584 1459
-0.51411247 -1.1489712 -0.68207902 5 82573020 2 53 514 1453
-0.52043957 -1.1442217 -0.68107122 15 82673340 5 53 534 1451
-0.52889627 -1.1441448 -0.68308687 7 82767450 3 53 514 1455
-0.53407556 -1.1369666 -0.68056726 13 82867520 5 53 599 1450
-0.5384447 -1.1282082 -0.6770398 7 82962930 3 53 571 1443
-0.54836345 -1.1311047 -0.68107122 9 83062170 3 53 553 1451
-0.55529344 -1.1277188 -0.68107122 11 83159010 4 53 523 1451
-0.57029396 -1.1405243 -0.69165361 10 83256170 4 53 578 1472
-0.58079171 -1.1439396 -0.69618893 11 83354440 4 53 583 1481
-0 -0 -0 4 83451150 0 53 559 0
