# .PCD v0.7 - Point Cloud Data file format
VERSION 0.7
FIELDS x y z intensity t reflectivity ring ambient range
SIZE 4 4 4 4 4 2 1 2 4
TYPE F F F F U U U U U
COUNT 1 1 1 1 1 1 1 1 1
WIDTH 815
HEIGHT 1
VIEWPOINT 0 0 0 1 0 0 0
POINTS 815
DATA ascii
-7.0371428 -2.264679 -2.3016174 29 92691540 5 44 366 7755
-6.9945326 -2.2037308 -2.2828603 84 92791240 14 44 434 7693
-7.0024571 -2.1590898 -2.281045 254 92885530 43 44 462 7687
-6.9535108 -2.0974011 -2.2604725 262 92986170 43 44 441 7619
-6.9177885 -2.040432 -2.2444382 283 93080410 46 44 462 7566
-6.8550668 -1.9763391 -2.21963 269 93180270 42 44 451 7484
-6.8404546 -1.9267614 -2.2108567 301 93276010 47 44 509 7455
-6.8668547 -1.8887888 -2.2156971 318 93374910 50 44 494 7471
-6.9077764 -1.8545104 -2.2253783 373 93471610 61 44 441 7503
-6.9586792 -1.822451 -2.2383873 384 93569210 63 44 483 7546
-6.9992871 -1.7872483 -2.2480686 389 93668470 64 44 479 7578
-7.0471244 -1.7534525 -2.26017 373 93765610 61 44 472 7618
-7.0401478 -1.7059244 -2.2544217 249 93864870 41 44 455 7599
-8.8253918 -2.0802014 -2.8331735 38 93960080 10 44 387 9512
-8.3009491 -1.9031566 -2.6583078 91 94059920 21 44 410 8934
-8.361783 -1.86315 -2.6743422 175 94154560 41 44 386 8987
-8.3805113 -1.813417 -2.6767623 186 94254200 44 44 406 8995
-8.4409237 -1.7723179 -2.6927967 167 94350710 41 44 405 9048
-8.4964743 -1.7295967 -2.7073185 140 94448350 34 44 414 9096
-8.5462065 -1.6851567 -2.7200251 149 94545620 36 44 428 9138
-8.583539 -1.6378545 -2.7287986 160 94643400 39 44 425 9167
-8.6412354 -1.5939513 -2.7442279 162 94742020 41 44 391 9218
-8.7231131 -1.5537359 -2.7675233 150 94838660 38 44 429 9295
-8.7672424 -1.5061375 -2.778717 141 94936950 35 44 425 9332
-8.8045311 -1.4569696 -2.7877932 127 95032540 32 44 426 9362
-8.8622561 -1.4106874 -2.803525 160 95132480 41 44 394 9414
-5.8574133 -0.8969782 -1.8360142 132 95227740 14 44 539 6216
-5.7873573 -0.84999382 -1.8118112 463 95327000 53 44 477 6136
-5.7726412 -0.81169426 -1.8054579 480 95424460 55 44 477 6115
-5.7435021 -0.77171355 -1.7945666 469 95522700 53 44 497 6079
-5.6961269 -0.72983253 -1.7779272 313 95620440 32 44 487 6024
-0.49914229 -0.064628862 -0.11488543 21 95717930 11 44 389 527
-0.48627281 -0.060041159 -0.11064992 22 95816740 11 44 387 513
-0.48473695 -0.056850251 -0.11004484 32 95912230 17 44 394 511
-0.48223215 -0.053583246 -0.10913724 28 96012500 15 44 378 508
-0.48729557 -0.051080294 -0.11064992 30 96107460 16 44 405 513
-0.47905624 -0.047319192 -0.10792709 34 96208250 18 44 377 504
-0.48598614 -0.044937089 -0.11004484 30 96304190 16 44 364 511
-0.48910353 -0.042176038 -0.11095245 27 96403100 14 44 359 514
-0.4884024 -0.039106078 -0.11064992 24 96500820 12 44 366 513
-0.48768204 -0.036046311 -0.11034738 24 96598170 12 44 406 512
-0.49645725 -0.033560988 -0.1130702 16 96696140 8 44 365 521
-0 -0 -0 5 96792530 0 44 411 0
-0 -0 -0 5 96891870 0 44 389 0
-0 -0 -0 5 96987200 0 44 377 0
-5.3618798 -0.19013225 -1.6581228 11 97087540 1 44 351 5628
-5.3191195 -0.15597756 -1.6442062 429 97181730 38 44 490 5582
-5.3009181 -0.12291005 -1.6381555 566 97282320 57 44 613 5562
-5.2834654 -0.090087287 -1.6324073 568 97378640 57 44 578 5543
-5.2505608 -0.057328798 -1.6218185 572 97478030 58 44 602 5508
-5.2222195 -0.024996571 -1.6127424 623 97574920 66 44 517 5478
-5.1822429 0.0069612479 -1.6000359 234 97673470 19 44 405 5436
-0.57288563 0.00062145334 -0.13697056 18 97771310 7 44 374 600
-0.58811969 0.004356348 -0.14181115 18 97867750 7 44 401 616
-0.58617598 0.0079257367 -0.14120609 25 97967850 9 44 364 614
-0.5956443 0.01177658 -0.14423144 24 98063250 9 44 351 624
-0.61175543 0.015962822 -0.14937456 9 98164490 3 44 353 641
-0.62593222 0.020272965 -0.1539126 24 98259140 9 44 374 656
-0.62103522 0.023898421 -0.15239993 14 98358780 5 44 350 651
-0.6418184 0.028782248 -0.15905572 15 98454710 6 44 355 673
-0.65304857 0.03337555 -0.16268615 15 98553180 6 44 367 685
-0.66139245 0.037926283 -0.16540898 9 98651040 3 44 360 694
-0 0 -0 4 98748570 0 44 366 0
-0 0 -0 4 98847040 0 44 385 0
-4.9030261 0.39835051 -1.5165359 9 98942780 0 44 358 5160
-4.8093429 0.42038196 -1.4874924 213 99042420 15 44 402 5064
-4.812366 0.45042139 -1.4893076 402 99136950 28 44 504 5070
-4.7952867 0.47850928 -1.4847696 345 99237490 24 44 482 5055
-4.7723579 0.50579697 -1.4784163 315 99332380 22 44 483 5034
-4.7398043 0.5317505 -1.4690377 305 99431500 21 44 457 5003
-4.7071128 0.55732375 -1.4596591 252 99529080 16 44 429 4972
-4.6998219 0.58572078 -1.4584489 252 99626550 16 44 446 4968
-4.6847997 0.61305338 -1.4548185 241 99723280 15 44 396 4956
-4.672452 0.64061457 -1.4520956 220 99821120 14 44 438 4947
-4.6439056 0.66573399 -1.4442297 273 99920210 17 44 419 4921
-0 -0 -0 4 0 0 45 243 0
-0 -0 -0 3 98910 0 45 266 0
-5.3943667 -0.22148368 -1.7933995 226 194870 26 45 327 5702
-5.3417015 -0.18648286 -1.7750208 501 291410 68 45 388 5645
-5.3351755 -0.15348342 -1.7724414 484 390220 65 45 373 5637
-5.2877536 -0.11963899 -1.7559974 574 486660 83 45 376 5586
-5.2656732 -0.086810805 -1.7482591 513 587060 66 45 413 5562
-5.236764 -0.054187682 -1.7382637 509 681870 65 45 428 5531
-5.2209058 -0.021982163 -1.7327824 467 781880 58 45 417 5514
-5.1934915 0.010008059 -1.7234319 493 877420 62 45 404 5485
-5.1592555 0.041609496 -1.7118244 471 976230 58 45 360 5449
-5.1191502 0.072712168 -1.6982822 407 1072870 45 45 332 5407
-5.1063046 0.10387461 -1.6940907 343 1171210 38 45 346 5394
-5.0885382 0.13475823 -1.6882869 266 1268230 29 45 328 5376
-5.0620708 0.16515246 -1.6795813 32 1364730 3 45 261 5349
-0 0 -0 3 1463230 0 45 247 0
-0 0 -0 5 1558960 0 45 236 0
-0 0 -0 4 1660080 0 45 270 0
-0 0 -0 3 1755360 0 45 249 0
-0 0 -0 6 1854960 0 45 262 0
-0 0 -0 4 1950540 0 45 270 0
-0 0 -0 4 2048760 0 45 273 0
-0 0 -0 6 2146070 0 45 262 0
-0 0 -0 4 2243630 0 45 260 0
-0 0 -0 3 2341350 0 45 307 0
-4.7144575 0.47363889 -1.5683426 4 2438130 0 45 308 5004
-4.701108 0.5014562 -1.5647959 6 2537600 0 45 372 4993
-4.7318063 0.53410387 -1.5764034 51 2632720 4 45 402 5029
-4.7199802 0.56212276 -1.5735015 142 2733310 13 45 514 5020
-4.7173815 0.59119087 -1.5738239 194 2827440 18 45 799 5021
-4.6826935 0.61606026 -1.5631837 211 2927960 19 45 1285 4988
-4.6581941 0.64194459 -1.5560902 179 3024040 16 45 1895 4966
-4.6391759 0.6683597 -1.5509313 105 3122780 9 45 2596 4950
-4.6040959 0.69217831 -1.5402911 18 3219270 2 45 3012 4917
-0 0 -0 0 3316940 0 45 3197 0
-4.5102315 0.73480189 -1.51095 0 3415100 0 45 3124 4826
-4.5597739 0.77160537 -1.5296509 51 3511480 5 45 2795 4884
-4.5213876 0.79368806 -1.5180434 199 3610580 18 45 2250 4848
-4.4968734 0.81786513 -1.5112723 391 3705940 35 45 1709 4827
-4.4889798 0.84491765 -1.510305 549 3807330 59 45 1162 4824
-4.4641972 0.86865515 -1.503534 666 3902470 78 45 872 4803
-4.4578547 0.8958444 -1.5032116 667 4001500 78 45 713 4802
-4.4392972 0.92049402 -1.4986975 771 4098300 92 45 745 4788
-4.4233823 0.94554245 -1.4951508 728 4195960 84 45 664 4777
-4.400856 0.96900755 -1.4893471 722 4293150 82 45 520 4759
-4.3717461 0.99076957 -1.4812863 762 4390690 90 45 479 4734
-4.3526773 1.0145714 -1.4767722 775 4490330 92 45 475 4720
-4.3334813 1.0381765 -1.4722582 788 4586010 95 45 511 4706
-4.3049679 1.0593258 -1.4645199 818 4685250 100 45 496 4682
-4.2855368 1.0824795 -1.4600059 623 4780310 66 45 500 4668
-4.2788143 1.1087546 -1.4600059 356 4880310 29 45 460 4668
-4.2170343 1.1204227 -1.44066 131 4975970 11 45 482 4608
-4.2785873 1.1649044 -1.4648423 24 5076300 2 45 589 4683
-0 0 -0 2 5173900 0 45 737 0
-0 0 -0 3 5271310 0 45 758 0
-0 0 -0 2 5368700 0 45 885 0
-0 0 -0 4 5465930 0 45 923 0
-0 0 -0 2 5565370 0 45 948 0
-0 0 -0 2 5660560 0 45 1424 0
-0 0 -0 0 5760350 0 45 2492 0
-0 0 -0 0 5853690 0 45 3585 0
-0 0 -0 0 5953680 0 45 4633 0
-0 0 -0 0 6051320 0 45 4900 0
-0 0 -0 0 6150200 0 45 4874 0
-0 0 -0 0 6247320 0 45 4391 0
-0 0 -0 0 6345580 0 45 3112 0
-0 0 -0 2 6444120 0 45 1753 0
-0 0 -0 3 6540810 0 45 503 0
-0 0 -0 4 6639250 0 45 319 0
-0 0 -0 4 6734410 0 45 311 0
-0 0 -0 5 6833980 0 45 302 0
-0 0 -0 4 6929460 0 45 277 0
-0 0 -0 6 7028850 0 45 263 0
-0 0 -0 3 7123940 0 45 256 0
-0 0 -0 12 7223130 0 45 235 0
-0 0 -0 4 7320270 0 45 266 0
-3.8714564 1.6969396 -1.3942299 21 7418810 1 45 262 4464
-3.788332 1.6883209 -1.3671458 157 7516550 12 45 259 4380
-3.7572043 1.7021663 -1.3594074 376 7614490 29 45 357 4356
-3.7570088 1.7299353 -1.3632766 592 7712870 57 45 426 4368
-3.7394633 1.7497482 -1.3606972 783 7807960 87 45 476 4360
-3.7064254 1.7621011 -1.3523139 908 7908570 101 45 604 4334
-3.6904285 1.7823418 -1.3503793 53 8003270 4 45 349 4328
-0.89398515 0.43979654 -0.29377323 64 8103110 19 45 270 1051
-0.8929646 0.44611725 -0.2944181 106 8198710 32 45 252 1053
-0.887676 0.45030701 -0.2934508 126 8297330 38 45 297 1050
-0.88236976 0.45444873 -0.29248351 151 8394300 46 45 286 1047
-0.88208324 0.46116626 -0.2934508 138 8490840 42 45 279 1050
-0.88676834 0.47055212 -0.29635268 128 8590050 39 45 298 1059
-0.88386434 0.47598436 -0.29635268 139 8685830 42 45 261 1059
-0.90087897 0.4922635 -0.30409101 97 8785030 29 45 262 1083
-0.90115565 0.49961311 -0.30538073 61 8880780 18 45 251 1087
-0.89724737 0.5046702 -0.3050583 108 8980920 33 45 253 1086
-0.89742529 0.51203781 -0.30634803 129 9076840 39 45 275 1090
-0.89590657 0.5184806 -0.30699289 134 9176280 40 45 265 1092
-0.89025718 0.52253407 -0.30602559 139 9271960 42 45 268 1089
-0.88622016 0.52750373 -0.30570316 139 9370810 42 45 294 1088
-0.8813445 0.5319556 -0.3050583 147 9468220 44 45 267 1086
-0.87806392 0.53735346 -0.3050583 151 9564190 46 45 288 1086
-0.8731401 0.54173523 -0.30441344 176 9664170 53 45 294 1084
-0.87060165 0.54758531 -0.30473587 156 9759140 47 45 247 1085
-0.87281764 0.55647111 -0.30699289 189 9858950 57 45 265 1092
-0.8646121 0.55874038 -0.3050583 97 9953540 29 45 247 1086
-0.8088553 0.52987981 -0.28377786 18 10053750 5 45 257 1020
-0.85611159 0.56826371 -0.30441344 51 10150360 15 45 253 1084
-0.87540841 0.58879453 -0.31376395 141 10249210 43 45 283 1113
-0.8717792 0.59415483 -0.31376395 130 10346610 39 45 289 1113
-0.86889678 0.60002959 -0.31408638 108 10443930 33 45 250 1114
-0.86519873 0.60534972 -0.31408638 158 10543250 48 45 264 1114
-0.85064572 0.60299855 -0.30957234 172 10638990 52 45 295 1100
-0.85693532 0.61537039 -0.31376395 132 10737740 40 45 279 1113
-0.83858436 0.61005723 -0.30763775 153 10833740 46 45 267 1094
-0.82109427 0.6051029 -0.30183399 185 10932870 56 45 271 1076
-0.81432843 0.60786915 -0.30054426 144 11028070 43 45 271 1072
-0.8037802 0.60772628 -0.29764241 131 11127830 40 45 293 1063
-0.7955218 0.6092003 -0.29570782 116 11224670 35 45 280 1057
-0.78502911 0.60885894 -0.29280594 108 11323210 33 45 308 1048
-0.77680677 0.61016273 -0.29087135 161 11419740 49 45 265 1042
-0.77230656 0.61432946 -0.29054892 162 11515860 49 45 263 1041
-0.76999867 0.62024206 -0.29119378 147 11615170 44 45 270 1043
-0.77499145 0.63212162 -0.29506296 96 11710490 29 45 274 1055
-0.77913642 0.64348382 -0.29860967 86 11810540 26 45 250 1066
-0.77662748 0.64946479 -0.29925454 47 11905730 14 45 244 1068
-0.68583173 0.58094168 -0.26056284 18 12006050 5 45 253 948
-0.76212317 0.65341073 -0.29635268 138 12100760 42 45 282 1059
-0.76096261 0.66055262 -0.29764241 180 12201030 54 45 266 1063
-0.76259071 0.67020011 -0.30022183 178 12295160 54 45 300 1071
-0.76200455 0.67800766 -0.30183399 175 12394660 53 45 296 1076
-0.76416808 0.68836331 -0.30473587 148 12491420 45 45 271 1085
-0.76133066 0.69431287 -0.30538073 181 12589500 55 45 281 1087
-0.75218123 0.69448334 -0.30312371 217 12688650 66 45 268 1080
-0.74790579 0.69908553 -0.30312371 240 12784210 73 45 305 1080
-0.75324112 0.71275622 -0.30763775 207 12884640 63 45 296 1094
-0.7543295 0.72259533 -0.3102172 164 12978630 50 45 261 1102
-0.74647915 0.72392005 -0.30860505 189 13078970 57 45 284 1097
-0.74878746 0.73510861 -0.31182936 166 13173940 50 45 271 1107
-0.756365 0.75168318 -0.31763312 135 13273770 41 45 251 1125
-0.76777631 0.77240056 -0.32537144 93 13371170 28 45 232 1149
-0.76501489 0.77912056 -0.32633874 98 13469530 31 45 288 1152
-0.75823998 0.78176421 -0.32537144 126 13567420 38 45 275 1149
-0.75539625 0.78844982 -0.32633874 141 13664200 45 45 274 1152
-0.74924099 0.79169673 -0.32569388 114 13763590 34 45 275 1150
-0.74177969 0.79351658 -0.32440415 105 13859680 32 45 298 1146
-0.72339147 0.78346694 -0.31763312 139 13959540 42 45 278 1125
-0.71920943 0.7885893 -0.31795555 144 14054880 43 45 277 1126
-0.70801175 0.78596324 -0.31473124 147 14155250 44 45 287 1116
-0.70758736 0.79523683 -0.31698826 111 14250890 33 45 280 1123
-0.70206869 0.7988534 -0.31666583 106 14349880 32 45 273 1122
-0.70399034 0.81099999 -0.32021257 75 14447660 23 45 260 1133
-0.67061377 0.78228629 -0.30538073 13 14545260 4 45 281 1087
-2.5234938 2.9741433 -1.2829913 4 14644140 0 45 239 4119
-2.5982604 3.1005423 -1.3323232 516 14741600 46 45 397 4272
-2.5689225 3.1040332 -1.3268418 417 14840340 32 45 431 4255
-2.5432358 3.1116774 -1.3232951 456 14935630 39 45 430 4244
-2.5496714 3.1588881 -1.3371596 627 15036730 62 45 480 4287
-2.4298944 3.0486712 -1.2823464 238 15130540 17 45 486 4117
-2.4949007 3.1698608 -1.328454 361 15230650 28 45 540 4260
-2.2202797 2.8570895 -1.1869068 245 15326760 18 45 434 3821
-2.1773388 2.8376262 -1.1727198 279 15425450 21 45 371 3777
-2.1890552 2.8894007 -1.1891639 142 15521660 10 45 370 3828
-2.1610737 2.8891382 -1.1833601 70 15619850 5 45 381 3810
-2.0898552 2.8300266 -1.1527292 72 15718240 5 45 300 3715
-2.036742 2.7938573 -1.1320935 33 15815160 2 45 368 3651
-2.0239868 2.8124466 -1.134673 9 15913900 0 45 346 3659
-0 0 -0 3 16009710 0 45 472 0
-0 0 -0 2 16109200 0 45 510 0
-0 0 -0 3 16204280 0 45 561 0
-0 0 -0 2 16304000 0 45 658 0
-0 0 -0 4 16400320 0 45 642 0
-0 0 -0 2 16498360 0 45 579 0
-0 0 -0 3 16595010 0 45 512 0
-0 0 -0 3 16692830 0 45 463 0
-0 0 -0 5 16791050 0 45 381 0
-0 0 -0 4 16888330 0 45 332 0
-1.8407001 2.9602287 -1.1417665 19 16987890 1 45 336 3681
-2.1280706 3.4692018 -1.3407063 47 17083190 3 45 357 4298
-2.1479282 3.550211 -1.3677906 185 17182680 14 45 356 4382
-2.1367812 3.5812032 -1.3748841 319 17278440 24 45 447 4404
-2.0811448 3.5371494 -1.3523139 196 17378150 15 45 463 4334
-2.0940993 3.609611 -1.3758514 330 17474570 25 45 451 4407
-2.0281765 3.5459917 -1.3458652 155 17572250 12 45 420 4314
-2.0082414 3.561667 -1.347155 122 17670790 9 45 411 4318
-0.38547337 0.69601649 -0.22541787 89 17767930 25 45 295 839
-0.37709981 0.6908983 -0.222516 118 17866870 34 45 276 830
-0.36700386 0.68237269 -0.21832439 154 17962280 44 45 275 817
-0.35791662 0.67542064 -0.21477765 202 18062890 58 45 279 806
-0.35420531 0.6784423 -0.21510008 190 18157740 54 45 281 807
-0.34916666 0.67892104 -0.21445522 191 18257620 55 45 301 805
-0.34370613 0.6785199 -0.21348792 230 18352840 66 45 298 802
-0.33911213 0.67976981 -0.21316549 253 18451850 73 45 335 801
-0.3361918 0.68438423 -0.21413279 231 18548960 66 45 302 804
-0.33033097 0.6830287 -0.21284306 251 18646680 72 45 306 800
-0.32695091 0.68675053 -0.21348792 180 18745120 52 45 309 802
-0.32313424 0.68960011 -0.21381035 143 18841310 41 45 279 803
-0.3192949 0.69242865 -0.21413279 107 18940700 31 45 280 804
-0.33860677 0.74605024 -0.23347865 52 19035880 15 45 270 864
-0.30922377 0.69284016 -0.21284306 18 19135440 5 45 234 800
-0.29846975 0.68000221 -0.20736174 15 19230580 4 45 251 783
-0.30220568 0.70005602 -0.21413279 6 19330170 1 45 253 804
-0 0 -0 6 19426460 0 45 243 0
-0.30311266 0.72640723 -0.222516 6 19525980 1 45 256 830
-0 0 -0 3 19622040 0 45 257 0
-0 0 -0 4 19720330 0 45 226 0
-0 0 -0 3 19818510 0 45 241 0
-0 0 -0 5 19914880 0 45 229 0
-0.3763487 0.98457307 -0.31344151 4 20013790 1 45 275 1112
-0 0 -0 7 20108680 0 45 282 0
-0 0 -0 5 20208300 0 45 264 0
-0 0 -0 4 20303640 0 45 232 0
-0.95138806 2.6771958 -0.92219108 89 20403600 7 45 269 3000
-0.91934538 2.6382973 -0.90606952 228 20499730 20 45 301 2950
-0.89823633 2.629559 -0.90091062 238 20598650 21 45 281 2934
-0.87666738 2.6188664 -0.89510685 257 20696020 22 45 298 2916
-0.85615003 2.6107068 -0.89027041 285 20793880 25 45 345 2901
-0.83286667 2.5933833 -0.88220966 298 20893410 29 45 374 2876
-0.33773291 1.0771242 -0.33891356 43 20989260 14 45 295 1191
-0.33111745 1.0791762 -0.33891356 69 21088890 22 45 245 1191
-0.32366964 1.0784688 -0.33794627 100 21182910 32 45 314 1188
-0.3199912 1.0904218 -0.34149301 87 21282820 28 45 272 1199
-0.31093508 1.0841786 -0.33859113 96 21377840 31 45 253 1190
-0.30145463 1.0760434 -0.33504438 129 21477280 41 45 287 1179
-0.29585034 1.0815237 -0.33633411 111 21574110 35 45 300 1183
-0.28896332 1.0824044 -0.33601168 121 21671480 39 45 297 1182
-0.15644708 0.60339981 -0.16673544 73 21770370 7 45 304 657
-0.15040046 0.59517658 -0.16351114 104 21867380 11 45 244 647
-0.14308977 0.58139056 -0.15835224 119 21964990 12 45 289 631
-0.13885117 0.57949764 -0.15738495 123 22060400 13 45 290 628
-0.13485841 0.57849604 -0.15674008 86 22160540 9 45 268 626
-0.13786429 0.60791481 -0.16673544 38 22254700 4 45 282 657
-0.14092574 0.63923907 -0.17737566 15 22356370 1 45 261 690
-0.13880268 0.64841831 -0.18027754 16 22450930 1 45 260 699
-0.14182451 0.68260783 -0.19188505 23 22549700 2 45 271 735
-0.13895532 0.68995816 -0.19414207 19 22646630 2 45 272 742
-0.12519558 0.64250505 -0.17737566 41 22744350 4 45 243 690
-0.11681477 0.6200158 -0.16931489 55 22843990 5 45 275 665
-0.11317996 0.62165177 -0.16963732 65 22940200 7 45 297 666
-0.10886538 0.61953878 -0.16867003 85 23038670 9 45 263 663
-0.10634431 0.62765849 -0.17124948 104 23133200 11 45 286 671
-0.10635539 0.65164632 -0.17931025 62 23232840 6 45 256 696
-0.1130714 0.71959358 -0.20252527 53 23327610 15 45 252 768
-0.12325021 0.81571662 -0.23541322 27 23428770 8 45 230 870
-0.13280256 0.91573441 -0.26959091 30 23524030 9 45 269 976
-0.13284034 0.95684022 -0.28345543 46 23623200 14 45 244 1019
-0.12960969 0.97733927 -0.29022649 51 23721370 15 45 238 1040
-0.12000758 0.94994783 -0.28055355 38 23818830 11 45 261 1010
-0.087880515 0.73454374 -0.20639445 27 23917260 8 45 268 780
-0.23742236 2.0694215 -0.66392392 50 24012980 8 45 269 2199
-0.22040296 2.0313175 -0.6503818 213 24113640 36 45 316 2157
-0.2120095 2.0721793 -0.66392392 67 24208810 11 45 259 2199
-0.19536772 2.032927 -0.6500594 132 24308890 22 45 273 2156
-0.18118119 2.015233 -0.64361078 231 24405280 39 45 321 2136
-0.16801587 2.0068746 -0.64038646 217 24504540 37 45 312 2126
-0.15495998 1.9984305 -0.63716215 171 24600440 29 45 319 2116
-0.14201407 1.9899024 -0.63393784 216 24700270 50 45 310 2106
-0.12917867 1.9812908 -0.63071352 197 24796910 45 45 303 2096
-0.11622834 1.9688175 -0.62619948 184 24894220 42 45 285 2082
-0.10348667 1.9572055 -0.62200791 198 24993640 46 45 276 2069
-0.090308271 1.9332199 -0.61362469 201 25089160 46 45 274 2043
-0.078014538 1.923334 -0.61007798 208 25189270 48 45 303 2032
-0.065845542 1.9133705 -0.6065312 217 25285250 50 45 266 2021
-0.053801764 1.9033303 -0.60298449 205 25385200 47 45 262 2010
-0.041905366 1.8941611 -0.59976017 211 25480280 49 45 294 2000
-0.030155266 1.8868109 -0.59718072 218 25579990 50 45 281 1992
-0.018466759 1.8765485 -0.59363395 192 25676310 44 45 305 1981
-0.0069053299 1.866214 -0.59008723 187 25775270 43 45 282 1970
0.0045301346 1.8567554 -0.58686292 181 25872270 42 45 263 1960
0.015841903 1.8462805 -0.58331621 190 25969730 44 45 305 1949
0.027064808 1.8385764 -0.58073676 159 26069040 37 45 275 1941
0.038174793 1.8298582 -0.57783484 156 26163760 36 45 269 1932
0.049203601 1.8220193 -0.57525539 176 26264100 40 45 299 1924
0.060168248 1.8150605 -0.5729984 160 26357730 45 45 300 1917
0.07097657 1.806144 -0.57009649 139 26458700 39 45 287 1908
0.081551149 1.7943268 -0.56622732 167 26554230 47 45 300 1896
0.092223406 1.7871749 -0.56397033 163 26652690 46 45 283 1889
0.10243438 1.7733445 -0.55945629 189 26749830 53 45 296 1875
0.11295591 1.7670144 -0.5575217 161 26846270 45 45 306 1869
0.12333823 1.7596776 -0.55526471 148 26944720 42 45 287 1862
0.13356361 1.7513365 -0.55268526 148 27041250 42 45 301 1854
0.14346036 1.7401059 -0.54913849 141 27141070 39 45 309 1843
0.15338987 1.7307062 -0.54623663 156 27235860 44 45 280 1834
0.16312093 1.7203081 -0.54301232 161 27335600 45 45 279 1824
0.1728245 1.7107978 -0.54011047 149 27429930 42 45 263 1815
0.18181692 1.6955858 -0.53527397 182 27530140 51 45 264 1800
0.19158213 1.6887945 -0.53333938 168 27624790 47 45 300 1794
0.20127088 1.6819472 -0.53140479 169 27724340 47 45 270 1788
0.21053058 1.672227 -0.52850294 163 27820510 46 45 270 1779
0.21955545 1.6615183 -0.52527863 154 27918400 43 45 287 1769
0.22858581 1.6516999 -0.52237672 178 28015570 50 45 270 1760
0.23790804 1.6446445 -0.52044213 170 28111750 48 45 307 1754
0.24687146 1.6356648 -0.51786274 158 28211240 44 45 298 1746
0.25558752 1.6257021 -0.51496083 196 28307110 55 45 297 1737
0.26495019 1.620366 -0.5136711 164 28407050 46 45 268 1733
0.27394176 1.6131095 -0.51173651 163 28503060 49 45 285 1727
0.28285426 1.6058038 -0.50980192 155 28602740 47 45 292 1721
0.29134932 1.5965872 -0.50722247 164 28697680 49 45 286 1713
0.30009156 1.5891875 -0.50528789 170 28796690 51 45 283 1707
0.30911502 1.5835993 -0.50399816 155 28893990 47 45 270 1703
0.317895 1.5770323 -0.50238603 147 28991780 44 45 282 1698
0.3264142 1.5694904 -0.50045145 138 29090590 42 45 306 1692
0.33485284 1.5619036 -0.49851686 169 29186000 51 45 306 1686
0.34382045 1.5570461 -0.49754956 123 29287040 37 45 285 1683
0.35190541 1.5484444 -0.49529254 147 29381300 44 45 279 1676
0.36032698 1.5416461 -0.49368039 127 29482600 38 45 291 1671
0.36845818 1.5338825 -0.4917458 173 29578050 52 45 308 1665
0.37695947 1.5279158 -0.49045607 152 29676120 46 45 298 1661
0.38540146 1.5219027 -0.48916635 158 29773090 48 45 309 1657
0.394021 1.5167601 -0.48819906 143 29870370 43 45 317 1654
0.402592 1.511569 -0.48723176 159 29969340 48 45 311 1651
0.41061738 1.5045031 -0.4856196 165 30067350 50 45 314 1646
0.41933319 1.5001316 -0.48497474 191 30165220 58 45 316 1644
0.4287895 1.4984406 -0.48529717 143 30261320 43 45 281 1645
0.43585458 1.4885118 -0.48271775 183 30361440 55 45 303 1637
0.44443831 1.4839953 -0.48207289 179 30454580 54 45 283 1635
0.45270675 1.4785242 -0.4811056 184 30555290 56 45 290 1632
0.45923391 1.4675857 -0.47820371 214 30651210 65 45 306 1623
0.46937963 1.4683479 -0.47949344 174 30750150 52 45 294 1627
0.47720888 1.4618397 -0.47820371 200 30847680 60 45 295 1623
0.48437914 1.4534941 -0.47626913 210 30945370 63 45 279 1617
0.49207285 1.4469087 -0.4749794 206 31043760 62 45 295 1613
0.49939463 1.4393891 -0.47336724 223 31140320 67 45 298 1608
0.50727248 1.4336197 -0.47239995 259 31239910 78 45 291 1605
0.51445764 1.4260266 -0.47078779 213 31334680 64 45 302 1600
0.52189463 1.419288 -0.46949807 195 31433990 59 45 302 1596
0.52860582 1.4107386 -0.46756348 234 31529350 71 45 285 1590
0.53624189 1.4048145 -0.46659619 238 31630120 72 45 284 1587
0.54348308 1.3979673 -0.46530646 249 31724150 75 45 327 1583
0.55066049 1.3910843 -0.46401674 249 31824540 75 45 317 1579
0.55847979 1.3859227 -0.46337187 226 31921980 68 45 303 1577
0.56661481 1.3815937 -0.46304944 217 32020320 66 45 303 1576
0.57326305 1.3737212 -0.46143728 207 32117660 62 45 276 1571
0.58057415 1.3675629 -0.46047002 186 32214200 56 45 299 1568
0.58745688 1.3604971 -0.4591803 181 32313820 55 45 286 1564
0.59427488 1.3533986 -0.45789057 225 32409330 68 45 278 1560
0.59948784 1.3428086 -0.45531112 202 32509740 61 45 302 1552
0.60615462 1.3356555 -0.45402139 198 32603980 60 45 270 1548
0.6123606 1.3276112 -0.45240924 209 32703320 63 45 273 1543
0.61889166 1.3203988 -0.45111951 209 32799950 63 45 271 1539
0.62616956 1.3148663 -0.45047465 220 32897990 66 45 318 1537
0.63381428 1.3101469 -0.45015222 225 32994590 68 45 283 1536
0.64100808 1.3045334 -0.44950736 242 33091950 79 45 291 1534
0.64773512 1.2980334 -0.44854006 198 33190240 65 45 277 1531
0.65483356 1.2923448 -0.4478952 204 33286430 67 45 280 1529
0.66188657 1.2866181 -0.44725034 222 33386970 72 45 305 1527
0.67020595 1.2833722 -0.44757277 190 33480730 62 45 283 1528
0.67629808 1.2758884 -0.44628304 227 33581920 74 45 299 1524
0.68366647 1.2708807 -0.44596061 215 33677630 70 45 276 1523
0.68918812 1.2625052 -0.44434845 238 33777620 78 45 288 1518
0.69692171 1.2582526 -0.44434845 205 33874200 67 45 297 1518
0.7018519 1.2489985 -0.44241387 252 33972450 82 45 291 1512
0.7095024 1.2446685 -0.44241387 237 34069440 77 45 292 1512
0.71618021 1.2386518 -0.441769 231 34165250 75 45 327 1510
0.72281098 1.2325999 -0.44112414 225 34265480 73 45 302 1508
0.72891152 1.2256993 -0.44015685 244 34361850 80 45 293 1505
0.7349546 1.2187704 -0.43918955 240 34462110 78 45 325 1502
0.74192607 1.2134297 -0.43886712 229 34556950 75 45 294 1501
0.74985546 1.2096596 -0.43918955 216 34656140 70 45 304 1502
0.75625801 1.2034317 -0.43854469 251 34751700 82 45 332 1500
0.76464337 1.2003666 -0.43918955 239 34851140 78 45 306 1502
0.77148163 1.1948565 -0.43886712 219 34947780 71 45 296 1501
0.77879864 1.1901003 -0.43886712 228 35045820 74 45 295 1501
0.78608626 1.1852993 -0.43886712 231 35144060 75 45 305 1501
0.79228997 1.1788812 -0.43822226 245 35240540 80 45 320 1499
0.80004054 1.1747806 -0.43854469 239 35341280 78 45 298 1500
0.80562341 1.1675105 -0.43757743 253 35435420 83 45 322 1497
0.81385511 1.164098 -0.43822226 242 35535760 79 45 326 1499
0.81879723 1.1559902 -0.43693256 242 35630720 79 45 307 1495
0.82477272 1.1494051 -0.4362877 249 35730860 81 45 328 1493
0.83069825 1.1427903 -0.43564284 242 35827610 79 45 306 1491
0.83601326 1.1353832 -0.43467554 270 35925940 88 45 288 1488
0.84183389 1.1287134 -0.43403068 231 36023400 75 45 294 1486
0.84988326 1.1250385 -0.43467554 223 36121940 73 45 273 1488
0.85677034 1.1198026 -0.43467554 226 36220290 74 45 318 1488
0.86130911 1.111529 -0.43338582 282 36317570 92 45 296 1484
0.87161469 1.1106949 -0.43532041 224 36416880 73 45 302 1490
0.87841344 1.1053259 -0.43532041 218 36511450 71 45 314 1490
0.88458633 1.0991771 -0.43499798 228 36611360 74 45 319 1489
0.89071691 1.0929943 -0.43467554 248 36706120 81 45 300 1488
0.89921176 1.0897007 -0.43564284 203 36806610 66 45 297 1491
0.90588111 1.0841627 -0.43564284 238 36903000 78 45 275 1491
0.91251636 1.0785838 -0.43564284 239 37001020 78 45 289 1491
0.91911721 1.0729645 -0.43564284 238 37098550 78 45 293 1491
0.9256835 1.0673047 -0.43564284 206 37195200 67 45 281 1491
0.93096727 1.0601808 -0.43499798 274 37294060 89 45 290 1489
0.93871129 1.0558648 -0.43564284 266 37390880 87 45 324 1491
0.94706988 1.0521978 -0.43661013 207 37491160 67 45 308 1494
0.9535082 1.0463668 -0.43661013 230 37587470 75 45 287 1494
0.95991063 1.0404965 -0.43661013 236 37687040 77 45 332 1494
0.96692234 1.0352795 -0.43693256 228 37783110 74 45 318 1495
0.97260684 1.0286386 -0.43661013 245 37882040 80 45 320 1494
0.98020786 1.0240204 -0.437255 231 37978280 75 45 292 1496
0.98647267 1.0179867 -0.437255 218 38076570 71 45 262 1496
0.99137598 1.0105618 -0.43661013 257 38174160 84 45 317 1494
0.99689168 1.0037875 -0.4362877 219 38270800 71 45 280 1493
1.0037024 0.99831998 -0.43661013 219 38369590 71 45 314 1494
1.0104836 0.99280673 -0.43693256 242 38464880 79 45 295 1495
1.0179136 0.98790777 -0.43757743 227 38564930 74 45 331 1497
1.0239561 0.98164338 -0.43757743 219 38659750 71 45 296 1497
1.0313333 0.97664517 -0.43822226 222 38759910 72 45 296 1499
1.0386877 0.97159338 -0.43886712 247 38856660 81 45 301 1501
1.046019 0.96648806 -0.43951198 247 38955090 81 45 319 1503
1.052628 0.96069044 -0.43983442 259 39051760 85 45 338 1504
1.0606102 0.95611715 -0.44080171 210 39149250 68 45 322 1507
1.0692821 0.95211226 -0.44209144 225 39247150 73 45 313 1511
1.0758141 0.94615924 -0.44241387 270 39343900 88 45 314 1512
1.0830274 0.94078338 -0.44305873 263 39443030 86 45 317 1514
1.0887794 0.9341203 -0.44305873 247 39538430 81 45 345 1514
1.0952122 0.92803478 -0.44338116 246 39638090 80 45 289 1515
1.1008859 0.92129725 -0.44338116 232 39733030 76 45 298 1515
1.1050601 0.91331738 -0.4427363 239 39833120 78 45 313 1513
1.1099106 0.90592039 -0.44241387 240 39928120 78 45 312 1512
1.1176574 0.90087742 -0.44338116 187 40027110 61 45 327 1515
1.1231642 0.89400268 -0.44338116 229 40124880 75 45 283 1515
1.1293721 0.88767993 -0.44370359 226 40222920 74 45 288 1516
1.1355448 0.88131469 -0.44402602 237 40320780 77 45 287 1517
1.1416818 0.87490708 -0.44434845 240 40417140 78 45 301 1518
1.1492914 0.86960119 -0.44531575 222 40515860 72 45 297 1521
1.1583943 0.86536938 -0.44692791 205 40611320 67 45 265 1526
1.1652049 0.85937059 -0.44757277 215 40710810 70 45 310 1528
1.1719853 0.85332078 -0.44821763 199 40805780 65 45 293 1530
1.1802714 0.8483265 -0.44950736 240 40905810 78 45 284 1534
1.1877688 0.84271413 -0.45047465 213 41002450 64 45 307 1537
1.1960166 0.83758539 -0.45176437 214 41101620 65 45 288 1541
1.2026896 0.83130908 -0.45240924 231 41198630 70 45 304 1543
1.2116749 0.82658499 -0.45402139 221 41295970 67 45 288 1548
1.2198627 0.82125247 -0.45531112 219 41394600 66 45 260 1552
1.2288185 0.81637514 -0.45692328 216 41489870 65 45 264 1557
1.2385513 0.81193841 -0.45885786 224 41591110 68 45 264 1563
1.2482758 0.80741292 -0.46079245 206 41685500 62 45 293 1569
1.2571937 0.80228853 -0.46240458 201 41786310 61 45 318 1574
1.2644945 0.79607475 -0.46337187 213 41881600 64 45 280 1577
1.270159 0.78880119 -0.4636943 192 41981160 58 45 282 1578
1.2757818 0.781488 -0.46401674 247 42077910 75 45 295 1579
1.2821723 0.77462584 -0.4646616 217 42175470 66 45 294 1581
1.2869011 0.76674402 -0.4646616 200 42272860 60 45 307 1581
1.29566 0.76123488 -0.46627375 190 42370190 57 45 277 1586
1.3003064 0.75327051 -0.46627375 204 42468350 62 45 284 1586
1.3122976 0.74951023 -0.46917564 186 42564700 56 45 293 1595
1.3201693 0.74330491 -0.47046536 186 42664830 56 45 294 1599
1.3304958 0.73841161 -0.47272238 194 42758890 59 45 304 1606
1.3383217 0.73205417 -0.47401211 198 42859930 60 45 287 1610
1.3477852 0.72652847 -0.47594669 173 42955100 52 45 296 1616
1.3538888 0.71913463 -0.47659156 190 43053240 57 45 300 1618
1.3616289 0.71257263 -0.47788128 181 43149200 55 45 309 1622
1.3693393 0.70594269 -0.47917101 184 43246190 56 45 303 1626
1.3787067 0.70010364 -0.4811056 177 43344810 53 45 319 1632
1.3872076 0.69375193 -0.48271775 184 43441270 56 45 331 1637
1.3939847 0.68648416 -0.48368505 168 43541080 51 45 292 1640
1.4041301 0.68081445 -0.48594204 176 43636300 53 45 323 1647
1.4134045 0.67463744 -0.48787662 197 43736160 59 45 303 1653
1.4200864 0.66716218 -0.48884392 167 43831350 50 45 326 1656
1.4284475 0.66042644 -0.49045607 194 43931980 59 45 311 1661
1.435918 0.6532203 -0.4917458 151 44028520 46 45 307 1665
1.44249 0.64555985 -0.49271309 163 44127210 49 45 298 1668
1.4490219 0.63784325 -0.49368039 167 44223720 50 45 333 1671
1.4555134 0.63007081 -0.49464768 171 44321090 52 45 315 1674
1.4619639 0.62224263 -0.49561498 154 44418330 46 45 282 1677
1.4701189 0.61509132 -0.49722713 170 44514770 51 45 294 1682
1.477366 0.60750252 -0.49851686 182 44613430 55 45 291 1686
1.484575 0.59984785 -0.49980658 165 44708990 50 45 290 1690
1.4899867 0.59142745 -0.50045145 158 44809080 48 45 279 1692
1.4988773 0.58434176 -0.50238603 166 44903550 50 45 289 1698
1.5077368 0.57716918 -0.50432062 169 45003540 51 45 298 1704
1.5139072 0.56890839 -0.50528789 172 45100620 52 45 269 1707
1.5226964 0.56157863 -0.50722247 161 45198610 49 45 283 1713
1.5305626 0.5538395 -0.50883466 179 45295500 54 45 295 1718
1.5392828 0.54634231 -0.51076925 141 45392320 42 45 276 1724
1.5515432 0.54000676 -0.51399356 107 45491050 30 45 270 1734
1.5521406 0.52955705 -0.51302624 94 45587560 26 45 264 1731
1.5643355 0.52303302 -0.51625055 90 45687300 25 45 267 1741
1.5711125 0.51460642 -0.51754028 74 45782270 21 45 266 1745
1.5841526 0.50814575 -0.52108699 55 45883330 15 45 255 1756
1.5917549 0.49983799 -0.52269918 54 45978820 15 45 259 1761
1.6002195 0.49173486 -0.52463377 81 46077430 23 45 244 1767
1.6086442 0.48354661 -0.52656835 65 46173620 18 45 276 1773
1.6233842 0.47714752 -0.53075993 76 46271590 21 45 267 1786
1.6308292 0.4684884 -0.53237212 77 46369670 21 45 276 1791
1.6418736 0.46078208 -0.53527397 59 46467170 16 45 264 1800
1.6519717 0.45270681 -0.53785342 54 46566480 15 45 279 1808
1.661118 0.44427955 -0.54011047 64 46662010 18 45 260 1815
1.6683915 0.43527752 -0.5417226 52 46762100 14 45 271 1820
1.6847886 0.42854419 -0.54655904 65 46856290 18 45 271 1835
1.6864678 0.41796994 -0.54623663 70 46956590 19 45 266 1834
1.6991205 0.4100655 -0.54978335 63 47052050 18 45 292 1845
1.7135819 0.40245587 -0.55397499 54 47151180 15 45 272 1858
1.724323 0.39383787 -0.55687684 67 47248630 19 45 273 1867
1.7350224 0.38510317 -0.55977875 71 47347260 20 45 257 1876
1.7466046 0.37645212 -0.56300306 62 47445500 17 45 253 1886
1.7581455 0.36767337 -0.56622732 54 47542060 15 45 272 1896
1.7650062 0.35782287 -0.5678395 71 47641200 20 45 257 1901
1.7736695 0.3482683 -0.57009649 69 47736560 19 45 259 1908
1.7869307 0.33950806 -0.57396567 65 47837780 15 45 283 1920
1.7945656 0.32956767 -0.57590026 58 47933070 13 45 249 1926
1.8012136 0.31938031 -0.57751244 54 48033410 12 45 272 1931
1.8124685 0.30992526 -0.58073676 65 48129020 15 45 280 1941
1.8227412 0.3001895 -0.58363861 63 48227040 14 45 247 1950
1.832962 0.29033926 -0.58654052 70 48324270 16 45 311 1959
1.8459376 0.28080416 -0.59040964 56 48420890 13 45 291 1971
1.8588648 0.2711207 -0.59427881 63 48519270 14 45 283 1983
1.8745543 0.26168394 -0.59911531 81 48615820 18 45 263 1998
1.8883212 0.25181305 -0.60330689 62 48715700 14 45 290 2011
1.9001591 0.24154282 -0.60685366 85 48812020 19 45 268 2022
1.9091227 0.23079376 -0.60943311 89 48912480 20 45 297 2030
1.9227273 0.22048657 -0.61362469 96 49006820 22 45 257 2043
1.935336 0.20991828 -0.61749387 83 49106330 19 45 267 2055
1.9422373 0.19862142 -0.61942846 104 49201690 24 45 273 2061
1.9518991 0.18752146 -0.62233031 113 49300090 26 45 255 2070
1.9558412 0.17579766 -0.62329763 83 49397500 19 45 287 2073
1.9625424 0.16427153 -0.62523222 74 49495260 17 45 300 2079
1.971063 0.15281753 -0.62781167 71 49594280 16 45 273 2087
1.9766843 0.14106086 -0.6294238 86 49690390 20 45 312 2092
1.9860135 0.12949012 -0.63232571 69 49790430 16 45 298 2101
1.9962198 0.11786669 -0.63554996 66 49885190 15 45 304 2111
2.0035219 0.10597076 -0.63780701 82 49984950 14 45 270 2118
2.0135899 0.09412434 -0.64103132 86 50080620 14 45 276 2128
2.016021 0.081845596 -0.64167619 77 50179360 13 45 296 2130
2.0221612 0.06967371 -0.64361078 83 50276200 14 45 321 2136
2.0244431 0.057319619 -0.64425564 68 50374310 11 45 277 2138
2.028542 0.044983499 -0.64554536 70 50471780 12 45 260 2142
2.0306728 0.03256749 -0.64619023 81 50568730 14 45 276 2144
2.0289414 0.020086778 -0.64554536 73 50666650 12 45 270 2142
2.0271332 0.007628541 -0.6449005 90 50762920 15 45 287 2140
2.0290351 -0.0048129666 -0.64554536 75 50863660 13 45 306 2142
2.0270743 -0.017248077 -0.6449005 76 50958120 13 45 306 2140
2.0250373 -0.029659305 -0.64425564 65 51058910 11 45 272 2138
2.0238707 -0.042065166 -0.64393318 80 51154390 13 45 294 2137
2.0169506 -0.054309122 -0.64167619 63 51253200 11 45 296 2130
2.0194178 -0.066775642 -0.64264345 67 51350470 11 45 274 2133
2.0066733 -0.078692175 -0.63845187 61 51448210 10 45 275 2120
2.0014246 -0.090792425 -0.63683969 66 51547050 11 45 280 2115
1.9979936 -0.10292722 -0.63587242 76 51643380 13 45 294 2112
1.989764 -0.11475436 -0.63329297 78 51743180 18 45 282 2104
1.973907 -0.1260076 -0.62813407 49 51838890 11 45 273 2088
1.9797069 -0.13857464 -0.63039112 64 51938450 15 45 298 2095
1.9759877 -0.15050574 -0.6294238 77 52033660 18 45 259 2092
1.9684228 -0.1620885 -0.62716681 68 52133230 15 45 306 2085
1.9438169 -0.17209439 -0.61910599 45 52228140 10 45 275 2060
1.9662855 -0.18623188 -0.62716681 96 52327600 22 45 282 2085
1.9481519 -0.19659536 -0.62136304 91 52423600 21 45 276 2067
1.9356135 -0.20734401 -0.61749387 85 52520960 19 45 279 2055
1.9136105 -0.21688744 -0.61040038 56 52619470 13 45 277 2033
1.9122436 -0.22862506 -0.61040038 79 52716580 18 45 261 2033
1.8995334 -0.23894508 -0.6065312 62 52817220 14 45 250 2021
1.8933388 -0.24998002 -0.60491908 83 52912320 19 45 259 2016
1.8870804 -0.26094794 -0.60330689 69 53011410 16 45 278 2011
1.878885 -0.27157915 -0.6010499 66 53107190 15 45 276 2004
1.8696944 -0.28197923 -0.59847045 76 53207210 17 45 237 1996
1.8641881 -0.29286146 -0.59718072 62 53303570 14 45 267 1992
1.853947 -0.3029272 -0.59427881 54 53402050 12 45 222 1983
1.8492533 -0.31382421 -0.59331155 90 53499390 21 45 290 1980
1.8416985 -0.32418492 -0.59137696 83 53597490 19 45 256 1974
1.8340865 -0.33446479 -0.58944237 67 53695470 15 45 255 1968
1.8264178 -0.34466347 -0.58750778 67 53791510 15 45 272 1962
1.8186933 -0.3547807 -0.5855732 63 53890270 14 45 262 1956
1.8109136 -0.36481616 -0.58363861 82 53984860 19 45 269 1950
1.8049333 -0.3751533 -0.58234888 57 54085230 13 45 241 1946
1.7979686 -0.38523325 -0.58073676 63 54181120 14 45 233 1941
1.7900239 -0.39503863 -0.57880217 75 54281210 17 45 293 1935
1.7820269 -0.40476108 -0.57686758 78 54378150 18 45 255 1929
1.7767439 -0.41504404 -0.57590026 86 54476760 20 45 269 1926
1.7677195 -0.42439651 -0.57364327 87 54575000 24 45 288 1919
1.7586474 -0.43365395 -0.57138622 81 54670290 23 45 278 1912
1.7495285 -0.44281605 -0.56912923 90 54768520 25 45 281 1905
1.7394472 -0.45164552 -0.56654978 84 54864260 23 45 269 1897
1.7293237 -0.46036801 -0.56397033 91 54965070 25 45 276 1889
1.7218993 -0.46972844 -0.5623582 87 55060020 24 45 271 1884
1.716249 -0.47952309 -0.56139088 80 55160660 22 45 306 1881
1.7105435 -0.4892661 -0.56042361 85 55255790 24 45 298 1878
1.7047831 -0.49895719 -0.55945629 84 55355030 23 45 261 1875
1.6989683 -0.508596 -0.55848902 78 55451390 22 45 286 1872
1.6912887 -0.51762974 -0.55687684 72 55548860 20 45 283 1867
1.6871771 -0.52771574 -0.55655444 101 55647350 28 45 243 1866
1.6793977 -0.53662139 -0.55494225 105 55742080 29 45 294 1861
1.6706727 -0.54515851 -0.55300766 109 55842150 30 45 303 1855
1.6663978 -0.55510092 -0.55268526 92 55937810 26 45 262 1854
1.6557885 -0.56288403 -0.55010581 71 56038520 20 45 243 1846
1.6487252 -0.57179552 -0.54881608 78 56133820 22 45 293 1842
1.6389369 -0.57969689 -0.54655904 80 56234050 22 45 287 1835
1.6317861 -0.58846092 -0.54526931 87 56331010 24 45 268 1831
1.6219234 -0.59618151 -0.54301232 73 56430200 20 45 265 1824
1.6129144 -0.60413462 -0.54107773 96 56527200 27 45 265 1818
1.601215 -0.61098963 -0.53817588 95 56623580 27 45 246 1809
1.5974358 -0.620803 -0.53817588 97 56721100 27 45 268 1809
1.5874332 -0.62816024 -0.53591883 82 56818130 23 45 263 1802
1.5817924 -0.63718289 -0.53527397 100 56917700 28 45 266 1800
1.572596 -0.64472669 -0.53333938 93 57012230 26 45 274 1794
1.5703583 -0.65509117 -0.53398424 87 57114030 24 45 263 1796
1.5645657 -0.66397631 -0.53333938 88 57209390 25 45 260 1794
1.5569845 -0.67206633 -0.53204966 90 57310500 25 45 247 1790
1.5528315 -0.68160713 -0.53204966 92 57406420 26 45 290 1790
1.545161 -0.68958223 -0.53075993 78 57504530 22 45 267 1786
1.5348641 -0.69631797 -0.52850294 77 57602250 21 45 256 1779
1.5288427 -0.70493138 -0.52785808 77 57698860 21 45 251 1777
1.5210584 -0.71269542 -0.52656835 67 57797590 19 45 272 1773
1.5149467 -0.72120279 -0.52592349 69 57893990 19 45 254 1771
1.5070828 -0.72883934 -0.52463377 60 57993300 17 45 256 1767
1.5000324 -0.73682314 -0.52366644 83 58088460 23 45 247 1764
1.4946357 -0.74559146 -0.52334404 81 58189130 23 45 284 1763
1.4866534 -0.75304043 -0.52205431 79 58285220 22 45 274 1759
1.4836892 -0.76301247 -0.52269918 116 58384000 32 45 262 1761
1.4764611 -0.77078992 -0.52173185 128 58480490 36 45 283 1758
1.4666828 -0.77718002 -0.51979727 146 58579380 41 45 236 1752
1.4618865 -0.78616476 -0.51979727 148 58676590 42 45 303 1752
1.4570352 -0.79511994 -0.51979727 138 58773880 39 45 280 1752
1.4438437 -0.79946727 -0.51657301 215 58872520 60 45 273 1742
1.4364339 -0.80692285 -0.51560569 209 58968580 59 45 307 1739
1.4322785 -0.81618941 -0.51592815 184 59069500 52 45 268 1740
1.4247837 -0.82354343 -0.51496083 242 59163430 68 45 298 1737
1.4188867 -0.83179224 -0.51463842 239 59263380 67 45 291 1736
1.412128 -0.8395167 -0.51399356 198 59359110 56 45 286 1734
1.4077613 -0.84865355 -0.51431596 210 59456900 59 45 295 1735
1.4017195 -0.8567825 -0.51399356 185 59553920 52 45 291 1734
1.397241 -0.86586505 -0.51431596 209 59651560 59 45 292 1735
1.3910998 -0.87391925 -0.51399356 184 59750450 52 45 278 1734
1.3857114 -0.88243842 -0.51399356 186 59847480 52 45 287 1734
1.3778834 -0.88938648 -0.51302624 210 59946390 59 45 308 1731
1.373193 -0.89834177 -0.5133487 218 60042390 61 45 301 1732
1.3668656 -0.90622824 -0.51302624 210 60142280 59 45 286 1731
1.3612794 -0.91459811 -0.51302624 198 60237460 56 45 308 1731
1.3540759 -0.92186958 -0.51238137 175 60336820 49 45 271 1729
1.3476143 -0.92962384 -0.51205897 192 60433270 54 45 302 1728
1.3403322 -0.93679202 -0.51141411 198 60532180 60 45 278 1726
1.3337859 -0.94445217 -0.51109165 214 60628260 65 45 302 1725
1.327196 -0.95206732 -0.51076925 205 60725600 62 45 273 1724
1.3197968 -0.95908135 -0.51012439 192 60823010 58 45 264 1722
1.3115985 -0.96548003 -0.50915706 160 60920980 48 45 291 1719
1.3048904 -0.97294456 -0.50883466 188 61019790 57 45 301 1718
1.2996519 -0.98150265 -0.50915706 202 61116480 61 45 319 1719
1.2921003 -0.98830986 -0.5085122 194 61216240 59 45 275 1717
1.2852629 -0.99564046 -0.5081898 194 61311230 59 45 271 1716
1.2806202 -1.0046751 -0.50883466 231 61410600 70 45 302 1718
1.2751732 -1.0131021 -0.50915706 222 61506590 67 45 297 1719
1.2689329 -1.0209074 -0.50915706 212 61604370 64 45 281 1719
1.2626449 -1.0286741 -0.50915706 200 61702220 60 45 281 1719
1.2585014 -1.0382074 -0.51012439 172 61799230 52 45 284 1722
1.2499263 -1.0440913 -0.50915706 177 61898470 53 45 280 1719
1.2434964 -1.051741 -0.50915706 167 61994460 50 45 320 1719
1.2370197 -1.0593512 -0.50915706 182 62095020 55 45 306 1719
1.2297806 -1.0663019 -0.50883466 186 62190910 56 45 283 1718
1.2217908 -1.07258 -0.5081898 175 62291470 53 45 312 1716
1.2158947 -1.0806848 -0.5085122 187 62386510 56 45 280 1717
1.2092408 -1.0881251 -0.5085122 188 62484930 57 45 303 1717
1.2032418 -1.0961611 -0.50883466 207 62582370 62 45 272 1718
1.1964933 -1.1035235 -0.50883466 236 62680050 71 45 313 1718
1.190392 -1.1114897 -0.50915706 236 62778370 71 45 283 1719
1.1835496 -1.1187729 -0.50915706 187 62875210 56 45 284 1719
1.1759783 -1.12536 -0.50883466 213 62975520 64 45 287 1718
1.1690511 -1.1325545 -0.50883466 193 63070350 58 45 318 1718
1.1620798 -1.1397064 -0.50883466 196 63170020 59 45 252 1718
1.1557372 -1.1474817 -0.50915706 223 63265460 67 45 273 1719
1.1500111 -1.1558924 -0.50980192 235 63365800 71 45 298 1721
1.142897 -1.162927 -0.50980192 213 63462490 64 45 314 1721
1.1377198 -1.1719536 -0.51076925 181 63561320 55 45 299 1724
1.1311632 -1.179595 -0.51109165 200 63658520 60 45 321 1725
1.1252072 -1.1878868 -0.51173651 190 63757630 57 45 269 1727
1.1185447 -1.1954591 -0.51205897 214 63856370 60 45 275 1728
1.1118315 -1.2029945 -0.51238137 193 63953460 54 45 258 1729
1.1057068 -1.2111909 -0.51302624 172 64053540 48 45 321 1731
1.0982543 -1.2179526 -0.51302624 185 64148700 52 45 304 1731
1.0907604 -1.2246685 -0.51302624 193 64248590 54 45 293 1731
1.0832255 -1.2313383 -0.51302624 211 64343730 59 45 304 1731
1.0756497 -1.2379615 -0.51302624 192 64443720 54 45 315 1731
1.0680335 -1.2445383 -0.51302624 235 64539310 66 45 265 1731
1.0609897 -1.2517898 -0.5133487 197 64638920 55 45 271 1732
1.0545055 -1.259727 -0.51399356 182 64736220 51 45 287 1734
1.0479636 -1.2676316 -0.51463842 197 64834780 55 45 291 1736
1.0413644 -1.2755034 -0.51528329 183 64933160 51 45 292 1738
1.0347081 -1.2833418 -0.51592815 178 65031030 50 45 291 1740
1.0285851 -1.2918864 -0.51689541 196 65130300 55 45 288 1743
1.022396 -1.3004043 -0.51786274 196 65224680 55 45 296 1746
1.0155599 -1.3081475 -0.5185076 182 65325300 51 45 278 1748
1.0098203 -1.3173573 -0.51979727 177 65420380 50 45 335 1752
1.0034339 -1.3257915 -0.52076459 190 65520530 53 45 305 1755
0.9969821 -1.3341967 -0.52173185 185 65616730 52 45 299 1758
0.99046475 -1.3425727 -0.52269918 174 65716370 49 45 316 1761
0.98499799 -1.3524481 -0.5243113 187 65814320 52 45 262 1766
0.978894 -1.3615389 -0.52560103 173 65911800 49 45 283 1770
0.97161835 -1.3690625 -0.52624589 195 66009610 55 45 283 1772
0.96537483 -1.3780978 -0.52753562 182 66105510 51 45 317 1776
0.95797884 -1.3855516 -0.52818048 199 66203890 56 45 295 1778
0.94839072 -1.3898406 -0.52753562 172 66299230 48 45 265 1776
0.94249213 -1.3995571 -0.5291478 201 66401020 56 45 285 1781
0.93441147 -1.4061017 -0.52947021 174 66496510 49 45 311 1782
0.92732549 -1.4141821 -0.53043753 219 66595920 61 45 276 1785
0.92172015 -1.4246112 -0.53237212 167 66691880 47 45 280 1791
0.91500163 -1.4334298 -0.53366184 195 66789820 55 45 309 1795
0.90972483 -1.4446211 -0.53591883 172 66888220 48 45 295 1802
0.90284443 -1.4533905 -0.53720856 182 66985570 51 45 273 1806
0.89638585 -1.4629364 -0.53882074 152 67084710 43 45 258 1811
0.88837314 -1.4700284 -0.53946561 176 67179410 49 45 310 1813
0.88127774 -1.4787025 -0.54075533 144 67279240 40 45 310 1817
0.8779518 -1.4938703 -0.54462445 112 67374130 31 45 269 1829
0.87019497 -1.501685 -0.54559177 74 67474570 21 45 262 1832
0.86284548 -1.5102823 -0.5468815 69 67571890 19 45 235 1836
0.85123622 -1.5114262 -0.54526931 66 67670880 18 45 253 1831
0.84562749 -1.5232387 -0.54784876 58 67767260 16 45 247 1839
0.83581012 -1.5275686 -0.54752636 61 67864980 17 45 252 1838
0.82867122 -1.5368323 -0.54913849 47 67963210 13 45 272 1843
0.81655669 -1.5368747 -0.5472039 91 68058600 25 45 252 1837
0.81018925 -1.5477239 -0.54946095 68 68157670 19 45 274 1844
0.80024278 -1.551825 -0.54913849 83 68253410 23 45 255 1843
0.79414105 -1.5634549 -0.55171794 77 68353690 21 45 238 1851
0.78622979 -1.571683 -0.55300766 86 68448910 24 45 242 1855
0.7803424 -1.5841169 -0.55590957 78 68549320 22 45 263 1864
0.77350432 -1.5948347 -0.55816656 69 68646330 19 45 281 1871
0.76615536 -1.6046741 -0.56010115 62 68744620 17 45 258 1877
0.75911808 -1.6153395 -0.5623582 73 68842030 20 45 241 1884
0.75237668 -1.6268376 -0.56493765 90 68940130 25 45 262 1892
0.74512982 -1.6374524 -0.56719464 81 69039040 23 45 267 1899
0.7373935 -1.6471754 -0.56912923 68 69136130 19 45 280 1905
0.72880149 -1.655133 -0.57041895 110 69235790 31 45 260 1909
0.7216469 -1.6665205 -0.5729984 95 69331500 27 45 272 1917
0.71289378 -1.6743996 -0.57428813 85 69432120 19 45 312 1921
0.70773286 -1.6909629 -0.57880217 96 69526630 22 45 272 1935
0.69698322 -1.6943985 -0.57847971 77 69626650 18 45 254 1934
0.6879952 -1.7021525 -0.57976943 84 69723290 19 45 251 1938
0.68103844 -1.7151369 -0.58299375 100 69822070 23 45 264 1948
0.67119104 -1.7210466 -0.58363861 77 69920010 18 45 288 1950
0.66299278 -1.7313186 -0.58589566 105 70017280 24 45 276 1957
0.65302473 -1.7371256 -0.58654052 93 70115840 21 45 283 1959
0.6439954 -1.7455389 -0.58815265 67 70212830 15 45 255 1964
0.63585603 -1.7565761 -0.5907321 79 70311570 18 45 298 1972
0.62665313 -1.7649034 -0.59234422 93 70406860 21 45 278 1977
0.61830771 -1.775865 -0.59492368 93 70507170 21 45 253 1985
0.61015779 -1.787686 -0.59782559 95 70602950 22 45 252 1994
0.60098302 -1.7967809 -0.59976017 79 70703300 18 45 263 2000
0.59201509 -1.8067298 -0.60201716 95 70800130 22 45 260 2007
0.58294755 -1.8166361 -0.60427421 100 70898550 23 45 281 2014
0.57434946 -1.8283045 -0.60717607 90 70996990 21 45 255 2023
0.5650723 -1.8381263 -0.60943311 102 71093900 23 45 275 2030
0.55651611 -1.8506218 -0.61265737 107 71193190 25 45 243 2040
0.54729223 -1.8612652 -0.61523682 105 71289420 24 45 244 2048
0.53795862 -1.8718649 -0.61781627 113 71388540 26 45 259 2056
0.52877206 -1.8833309 -0.62071818 114 71483330 26 45 273 2065
0.5199669 -1.8965799 -0.6242649 103 71583160 24 45 253 2076
0.51101893 -1.9097912 -0.62781167 89 71678230 20 45 262 2087
0.50240779 -1.9247953 -0.63200325 89 71777640 20 45 249 2100
0.49316344 -1.9379308 -0.63554996 82 71874180 19 45 291 2111
0.48354816 -1.9501063 -0.63877428 86 71972220 14 45 246 2121
0.47402486 -1.9631565 -0.64232105 100 72069190 17 45 292 2132
0.46414229 -1.9752414 -0.64554536 91 72166270 15 45 282 2142
