# .PCD v0.7 - Point Cloud Data file format
VERSION 0.7
FIELDS x y z intensity t reflectivity ring ambient range
SIZE 4 4 4 4 4 2 1 2 4
TYPE F F F F U U U U U
COUNT 1 1 1 1 1 1 1 1 1
WIDTH 810
HEIGHT 1
VIEWPOINT 0 0 0 1 0 0 0
POINTS 810
DATA ascii
-4.4735193 -1.6933812 -0.12324332 756 95054760 87 33 623 4786
-4.5063076 -1.6742606 -0.12404743 735 95152770 89 33 681 4810
-4.5296402 -1.6513752 -0.12451648 710 95249270 85 33 643 4824
-4.5538025 -1.6286031 -0.12501904 761 95348530 94 33 642 4839
-4.5825701 -1.6072516 -0.12568912 755 95444840 93 33 639 4859
-4.6046309 -1.5833316 -0.12612468 735 95544950 89 33 564 4872
-4.6294117 -1.5601594 -0.12666073 801 95639700 100 33 557 4888
-4.6550298 -1.5370562 -0.12723032 735 95740310 89 33 597 4905
-4.6862431 -1.5155441 -0.1280009 757 95835920 94 33 560 4928
-4.7259417 -1.496424 -0.12907304 727 95934660 88 33 567 4960
-4.7455344 -1.4706552 -0.12944157 730 96031780 89 33 571 4971
-4.7649889 -1.4447021 -0.12981012 718 96129810 86 33 590 4982
-4.7871776 -1.4194188 -0.13027918 683 96228700 86 33 548 4996
-4.8169136 -1.3961452 -0.13101627 626 96325460 75 33 650 5018
-4.8436589 -1.3717422 -0.13165285 618 96424780 74 33 640 5037
-4.8741384 -1.3481301 -0.13242343 632 96520910 76 33 617 5060
-4.9122281 -1.3262815 -0.13346206 721 96620560 93 33 575 5091
-4.9357357 -1.3001933 -0.13399813 680 96715390 85 33 582 5107
-4.9678192 -1.2761066 -0.13483573 756 96815030 100 33 586 5132
-4.9910669 -1.2494881 -0.13537179 713 96911140 92 33 535 5148
-5.0170875 -1.2233434 -0.13600837 718 97009760 93 33 548 5167
-5.0585322 -1.200623 -0.13718101 681 97107220 92 33 535 5202
-5.0823579 -1.1733882 -0.13775058 680 97204040 92 33 580 5219
-5.1031137 -1.1452489 -0.13821964 649 97303030 86 33 559 5233
-5.1442204 -1.1213744 -0.13939229 612 97399760 78 33 645 5268
-5.1695814 -1.0937243 -0.14002886 576 97499930 72 33 636 5287
-5.2026277 -1.0674139 -0.14093347 623 97594840 81 33 604 5314
-5.2375054 -1.0411294 -0.14190508 683 97695660 93 33 584 5343
-5.2722554 -1.0144566 -0.1428767 615 97790720 79 33 537 5372
-5.3029437 -0.98666424 -0.14371431 680 97889910 98 33 519 5397
-5.3403745 -0.95977247 -0.14478643 659 97987450 94 33 599 5429
-5.3697958 -0.93109035 -0.14559053 673 98085440 97 33 565 5453
-5.4059653 -0.90323782 -0.14662915 619 98184320 85 33 588 5484
-5.4419947 -0.87497628 -0.14766778 539 98281130 70 33 662 5515
-5.4699774 -0.84508371 -0.14843838 590 98379820 80 33 642 5538
-5.5017519 -0.8154676 -0.14934298 525 98475410 67 33 562 5565
-5.5294104 -0.78493047 -0.15011358 529 98575400 73 33 575 5588
-5.5608611 -0.754623 -0.15101819 538 98670510 74 33 545 5615
-0.52545947 -0.066782206 0.01934991 47 98770700 2 33 423 530
-0.52685124 -0.063679256 0.019316407 66 98866420 4 33 436 531
-0.52127624 -0.059747063 0.019517431 57 98964880 3 33 362 525
-0.52361965 -0.056768026 0.019450422 45 99061990 2 33 397 527
-0.5170002 -0.052824736 0.019684952 34 99159260 2 33 383 520
-0.5193038 -0.049847674 0.019617943 49 99257740 2 33 411 522
-0.51362872 -0.046108421 0.019818967 89 99353660 5 33 429 516
-0.51888067 -0.043385383 0.019651446 65 99452920 3 33 423 521
-0.51415586 -0.039801933 0.019818967 55 99549410 3 33 417 516
-0.51140022 -0.036425423 0.019919479 51 99648820 3 33 350 513
-0.50862265 -0.033084236 0.020019991 39 99742540 2 33 412 510
-0 -0 -0 4 99843550 0 33 401 0
-0 -0 -0 4 99939410 0 33 388 0
-0 0 -0 7 0 0 34 202 0
-0.61796778 0.091041863 0.00027824828 5 100540 2 34 203 626
-4.67522 0.74501675 -0.24675518 5 193660 0 34 215 4743
-0 0 -0 4 292900 0 34 199 0
-4.5447412 0.7814216 -0.23937479 421 389140 25 34 253 4620
-4.5536165 0.81175745 -0.24021482 1237 488290 107 34 522 4634
-4.5318651 0.83658749 -0.23919477 1178 586040 105 34 625 4617
-4.5178237 0.86268598 -0.23865475 1235 683730 107 34 593 4608
-4.5006957 0.8880614 -0.23793471 1140 781780 102 34 586 4596
-4.4804931 0.91265893 -0.23703465 1110 878480 102 34 643 4581
-4.4572282 0.93642372 -0.2359546 1173 977460 103 34 564 4563
-4.4367671 0.96057379 -0.23505454 1236 1072930 105 34 581 4548
-4.4074116 0.98254555 -0.23361446 1260 1173210 106 34 557 4524
-4.3828182 1.0053136 -0.2324744 1270 1267300 107 34 488 4505
-4.3658824 1.0296571 -0.23181437 1266 1366890 106 34 479 4494
-4.3556027 1.0554825 -0.23157436 1378 1462460 110 34 569 4490
-4.3296757 1.0773499 -0.23037429 1337 1561400 109 34 531 4470
-4.3104134 1.100674 -0.22959425 1288 1659380 107 34 514 4457
-4.2958555 1.1250713 -0.22911422 1335 1757920 109 34 548 4449
-4.2744141 1.1475135 -0.22821417 1374 1855460 110 34 564 4434
-4.2567081 1.1707977 -0.22755414 1358 1951770 110 34 531 4423
-4.2340751 1.1925503 -0.22659409 1331 2050570 107 34 556 4407
-4.2122946 1.2143468 -0.22569403 1324 2146320 107 34 576 4392
-4.1951928 1.2373374 -0.22509401 1294 2246260 106 34 596 4382
-4.1741457 1.2590073 -0.22425395 1284 2340930 105 34 613 4368
-4.156806 1.2816458 -0.22365393 1224 2440850 103 34 633 4358
-4.1383939 1.3038181 -0.2229939 1242 2537180 104 34 688 4347
-4.1265163 1.3279597 -0.22275388 1215 2635670 103 34 642 4343
-4.1107063 1.3507545 -0.22227386 1294 2733380 106 34 667 4335
-4.0995026 1.3749969 -0.22209384 1198 2830100 103 34 585 4332
-4.0739946 1.3942913 -0.22101378 1396 2929090 109 34 658 4314
-4.0568838 1.4162935 -0.22047375 1336 3025770 107 34 537 4305
-4.0443568 1.4398167 -0.22023374 1350 3125290 107 34 627 4301
-4.0260663 1.4611911 -0.21963371 1438 3219920 110 34 567 4291
-4.0048585 1.4813536 -0.21885367 1415 3319840 110 34 512 4278
-3.9826214 1.5009583 -0.21801361 1442 3415310 111 34 524 4264
-3.9640212 1.5217806 -0.21741359 1433 3514400 110 34 574 4254
-3.931376 1.5369661 -0.2159135 1265 3610830 105 34 611 4229
-3.9116733 1.5569892 -0.21525347 1141 3708990 100 34 556 4218
-3.8854001 1.5741985 -0.21417341 831 3808110 59 34 598 4200
-3.8784351 1.5991534 -0.21435341 523 3905250 29 34 672 4203
-3.8685501 1.6229209 -0.21435341 237 4003540 11 34 728 4203
-3.8117156 1.6266005 -0.21129325 57 4100030 2 34 761 4152
-3.7961717 1.6475683 -0.21093324 15 4199290 0 34 728 4146
-3.7732112 1.6651754 -0.21009319 16 4293700 0 34 730 4132
-3.7802191 1.6960766 -0.21123324 84 4394110 4 34 651 4151
-3.7624786 1.715919 -0.21075322 238 4491060 11 34 596 4143
-3.7383006 1.7326632 -0.20985317 513 4589540 28 34 578 4128
-3.7384305 1.7606827 -0.21057321 691 4686100 44 34 588 4140
-3.7221568 1.7809978 -0.2102132 973 4784070 77 34 629 4134
-3.7102613 1.8033657 -0.21015319 1033 4882110 85 34 632 4133
-3.6901798 1.8216702 -0.20955315 1136 4978800 100 34 623 4123
-3.6735814 1.8415891 -0.20919314 1149 5079240 100 34 661 4117
-3.6426513 1.8541141 -0.20787306 273 5175650 12 34 393 4095
-0 0 -0 11 5275170 0 34 353 0
-0 0 -0 2 5369600 0 34 451 0
-0 0 -0 4 5470040 0 34 374 0
-0 0 -0 4 5566450 0 34 315 0
-0 0 -0 19 5664890 0 34 266 0
-0 0 -0 12 5761400 0 34 212 0
-0.80197769 0.44897777 -0.017422713 19 5857990 6 34 224 921
-0.79574448 0.4519031 -0.0171827 23 5955940 7 34 225 917
-0.81970179 0.47234124 -0.019042803 66 6054440 20 34 221 948
-0.81678814 0.47736195 -0.019042803 60 6153790 19 34 226 948
-0.81384373 0.48236468 -0.019042803 43 6249420 13 34 224 948
-0 0 -0 11 6350020 0 34 241 0
-0 0 -0 4 6445400 0 34 232 0
-0 0 -0 3 6545420 0 34 224 0
-0 0 -0 4 6640730 0 34 230 0
-0 0 -0 2 6739100 0 34 241 0
-0 0 -0 3 6835980 0 34 238 0
-0 0 -0 5 6934200 0 34 233 0
-0.79417688 0.52504122 -0.019402822 25 7032060 8 34 213 954
-0.75620973 0.50642169 -0.016882684 60 7127470 19 34 203 912
-0.75967598 0.51556557 -0.01736271 131 7227440 41 34 221 920
-0.7548582 0.51907873 -0.017242704 133 7322730 41 34 243 918
-0.73941165 0.51508713 -0.016342655 85 7423690 26 34 241 903
-0.74599266 0.52656519 -0.017062694 53 7518780 16 34 205 915
-0.77674156 0.55566955 -0.019582832 31 7619460 9 34 197 957
-0.78540415 0.56926256 -0.020482881 21 7715100 6 34 223 972
-0.78831363 0.5788238 -0.020962907 14 7812950 4 34 239 980
-0.77756077 0.57825881 -0.020422878 12 7911350 4 34 206 971
-0 0 -0 3 8008020 0 34 221 0
-0.75379348 0.57497311 -0.019162809 7 8107040 2 34 177 950
-0.74788934 0.57774663 -0.0189828 11 8202390 3 34 249 947
-0.60956001 0.47595522 -0.0086622378 58 8302540 18 34 225 775
-0.63859743 0.50523859 -0.011122371 119 8396850 37 34 225 816
-0.60056984 0.48088765 -0.0084222248 106 8496090 33 34 224 771
-0.58371127 0.47317421 -0.0073421658 48 8592680 18 34 212 753
-0.57388371 0.47100964 -0.0068021365 60 8691290 23 34 230 744
-0.55951971 0.4648895 -0.0059020878 80 8787730 30 34 243 729
-0.55893743 0.47025442 -0.0060820975 76 8886290 29 34 234 732
-0.55301642 0.47106916 -0.0058420845 79 8984510 30 34 234 728
-0.55312461 0.47707805 -0.0060820975 74 9081640 28 34 252 732
-0.56215841 0.49103469 -0.0070421495 63 9181160 24 34 237 748
-0.55392581 0.48981762 -0.0066221268 80 9275600 30 34 208 741
-0.55979061 0.50124562 -0.0073421658 76 9376480 29 34 229 753
-0.56332785 0.51074052 -0.0078821955 73 9471000 27 34 210 762
-0.56603765 0.51961857 -0.0083622215 44 9570160 14 34 204 770
-0.56865942 0.5285489 -0.0088422475 48 9667000 15 34 221 778
-0.5690226 0.53546733 -0.0091422638 47 9765120 14 34 230 783
-0.61319077 0.58463722 -0.013102479 145 9861950 45 34 265 849
-0.60816216 0.58699542 -0.012982473 141 9959810 44 34 250 847
-0.60881263 0.59492213 -0.013342492 148 10058100 46 34 274 853
-0.61503893 0.6085217 -0.014182538 211 10155550 66 34 263 867
-0.61059159 0.61157435 -0.014122535 202 10254790 63 34 249 866
-0.60892028 0.61745131 -0.014302544 227 10350650 71 34 262 869
-0.60650659 0.62261248 -0.014422551 221 10450310 69 34 269 871
-0.60749632 0.63137966 -0.014842574 260 10546600 81 34 311 878
-0.60908538 0.6409089 -0.0153226 308 10645560 96 34 278 886
-0.59902269 0.6380561 -0.01478257 268 10741070 83 34 296 877
-0.59712249 0.64392477 -0.01496258 250 10840470 78 34 279 880
-0.593831 0.64831573 -0.015022583 228 10936830 71 34 260 881
-0.5905081 0.65269047 -0.015082587 178 11034620 55 34 290 882
-0.58318359 0.6525647 -0.01478257 223 11132860 69 34 265 877
-0.59033948 0.66890454 -0.015802626 374 11230070 102 34 260 894
-0.58622408 0.6725142 -0.015802626 375 11329530 102 34 293 894
-0.56912971 0.66091043 -0.014602561 224 11424040 70 34 235 874
-0.56442052 0.66362673 -0.014542557 226 11522630 70 34 260 873
-0.56097645 0.66784477 -0.014602561 242 11619150 75 34 260 874
-0.55750185 0.67204547 -0.014662564 225 11717440 70 34 270 875
-0.55462575 0.67700374 -0.01478257 242 11814530 75 34 235 877
-0.55046129 0.68039411 -0.01478257 228 11912760 71 34 239 877
-0.54937339 0.68767256 -0.015082587 264 12010620 82 34 270 882
-0.54514354 0.6910305 -0.015082587 202 12107490 63 34 256 882
-0.54455203 0.69910413 -0.015442606 177 12206810 55 34 265 888
-0.54025215 0.70243227 -0.015442606 213 12300700 66 34 257 888
-0.54613292 0.71929497 -0.016462661 138 12401860 43 34 267 905
-0.54349458 0.7250365 -0.016642671 159 12495800 49 34 268 908
-0.54021603 0.72996771 -0.016762678 142 12596730 44 34 218 910
-0.53806794 0.73650312 -0.017002691 163 12693200 51 34 250 914
-0.53585994 0.74303955 -0.017242704 121 12791530 38 34 230 918
-0.54624856 0.76752263 -0.018802788 71 12889300 22 34 230 944
-0.54837233 0.78069091 -0.019522829 24 12986070 7 34 190 956
-0 0 -0 7 13084550 0 34 212 0
-2.3291252 3.4278538 -0.21129325 556 13180670 31 34 364 4152
-1.9883037 2.9642262 -0.17673138 290 13280630 12 34 566 3576
-1.9018767 2.8730786 -0.16929097 196 13376820 7 34 372 3452
-2.2590961 3.4601083 -0.21057321 308 13477150 14 34 403 4140
-1.8281542 2.8365834 -0.16503073 59 13572040 2 34 345 3381
-2.2218111 3.4960003 -0.21117325 33 13672080 1 34 290 4150
-0 0 -0 5 13768450 0 34 300 0
-0 0 -0 3 13867660 0 34 255 0
-0 0 -0 4 13964480 0 34 285 0
-0 0 -0 3 14063070 0 34 258 0
-0 0 -0 4 14161450 0 34 260 0
-0 0 -0 2 14257890 0 34 234 0
-0 0 -0 4 14357280 0 34 236 0
-0 0 -0 3 14453570 0 34 221 0
-0 0 -0 3 14553600 0 34 239 0
-1.40764 2.5451822 -0.13700922 10 14649120 0 34 218 2914
-1.4391714 2.6406059 -0.14294954 24 14749780 0 34 232 3013
-1.343322 2.5006628 -0.13280898 73 14845420 3 34 277 2844
-1.4821047 2.8010976 -0.15267007 109 14944030 4 34 355 3175
-1.4676512 2.8154533 -0.15303008 145 15042380 5 34 355 3181
-0.46287927 0.89537054 -0.022763005 68 15138710 21 34 191 1010
-0.47804835 0.93919462 -0.025523154 154 15237350 48 34 227 1056
-0.47316438 0.94389832 -0.025643161 199 15333890 62 34 240 1058
-0.46648699 0.94499028 -0.025523154 164 15433510 51 34 250 1056
-0.37020329 0.75985152 -0.012982473 102 15527690 32 34 235 847
-0.35826859 0.74677336 -0.011962418 59 15628200 18 34 238 830
-0.34186843 0.72362638 -0.010282326 99 15724100 31 34 250 802
-0.33950326 0.73024672 -0.010582342 89 15823810 28 34 217 807
-0.32639149 0.71321046 -0.0093222735 75 15919740 23 34 223 786
-0.31390703 0.69695377 -0.0081222085 102 16018290 38 34 230 766
-0.30602914 0.69063383 -0.0075821788 112 16115380 42 34 239 757
-0.30021021 0.68882978 -0.0073421658 132 16212580 50 34 242 753
-0.29093078 0.67870408 -0.0065621235 100 16311430 38 34 265 740
-0.28370005 0.67310071 -0.0060820975 78 16407360 29 34 257 732
-0.27654919 0.66743445 -0.0056020715 54 16507110 20 34 250 724
-0.27764624 0.682091 -0.006442117 44 16601040 17 34 229 738
-0 0 -0 4 16701700 0 34 214 0
-0 0 -0 4 16797190 0 34 211 0
-0 0 -0 2 16897130 0 34 209 0
-0 0 -0 4 16994090 0 34 192 0
-0 0 -0 3 17092180 0 34 230 0
-0 0 -0 3 17189720 0 34 233 0
-0 0 -0 2 17286610 0 34 196 0
-0 0 -0 3 17386470 0 34 191 0
-0.25363481 0.73798543 -0.0090822605 5 17481590 1 34 206 782
-0 0 -0 3 17581430 0 34 203 0
-0 0 -0 3 17676910 0 34 204 0
-0.24000794 0.74252898 -0.0090822605 10 17777200 3 34 214 782
-0.2135255 0.67344892 -0.004642019 33 17873150 12 34 212 708
-0.20183922 0.6499157 -0.0030819343 73 17971640 27 34 230 682
-0.20638326 0.67984563 -0.0048820321 120 18069240 45 34 222 712
-0.20192927 0.68014067 -0.0048220288 140 18167340 53 34 234 711
-0.19829772 0.68328732 -0.0049420353 166 18265320 63 34 266 713
-0.19383456 0.68352932 -0.0048820321 171 18361260 65 34 248 712
-0.18963684 0.68470579 -0.0048820321 194 18460670 73 34 301 712
-0.16477391 0.60768604 -2.1768024e-05 63 18556360 24 34 254 631
-0.14285696 0.53812277 0.00435847 35 18656400 18 34 225 558
-0.13955241 0.53898919 0.00435847 26 18751610 13 34 202 558
-0.13458198 0.53304815 0.0047784927 25 18851130 13 34 214 551
-0.12945852 0.52609563 0.0052585192 33 18947340 17 34 183 543
-0.12397487 0.51715571 0.0058585517 23 19045860 12 34 211 533
-0.11970261 0.51303762 0.006158568 18 19142550 9 34 195 528
-0.11463213 0.50498629 0.0066985972 22 19240280 11 34 187 519
-0.10717651 0.48517537 0.0079586655 17 19338420 9 34 227 498
-0.10077402 0.46920341 0.0089787217 9 19435110 5 34 212 481
-0.098283902 0.4717707 0.0088587152 18 19535580 9 34 222 483
-0.092357412 0.45668375 0.0098187672 18 19629560 9 34 181 467
-0.088270046 0.45037335 0.01023879 16 19730310 8 34 194 460
-0.087455556 0.461712 0.0095787542 19 19825720 10 34 194 471
-0.082051434 0.44748908 0.010478803 13 19925000 7 34 195 456
-0 0 -0 2 20021170 0 34 232 0
-0 0 -0 4 20118910 0 34 214 0
-0.079008423 0.48246038 0.0084386915 22 20216050 11 34 214 490
-0.073839925 0.4681266 0.0093387412 15 20313490 8 34 211 475
-0 0 -0 3 20412700 0 34 183 0
-0 0 -0 4 20508380 0 34 208 0
-0 0 -0 3 20608850 0 34 205 0
-0 0 -0 6 20703560 0 34 214 0
-0 0 -0 4 20804350 0 34 210 0
-0 0 -0 3 20901170 0 34 217 0
-0 0 -0 5 20999710 0 34 224 0
-0 0 -0 3 21096600 0 34 224 0
-0 0 -0 3 21193550 0 34 198 0
-0 0 -0 4 21291470 0 34 240 0
-0 0 -0 3 21387660 0 34 204 0
-0 0 -0 4 21487180 0 34 230 0
-0 0 -0 3 21582690 0 34 233 0
-0 0 -0 3 21682230 0 34 212 0
-0 0 -0 4 21778020 0 34 221 0
-0 0 -0 4 21878270 0 34 224 0
-0 0 -0 4 21972720 0 34 219 0
-0 0 -0 2 22071350 0 34 219 0
-0.019481029 0.49249434 0.0081986785 9 22168420 5 34 212 494
-0 0 -0 4 22265900 0 34 232 0
-0.013854488 0.51465273 0.006878607 16 22365390 8 34 209 516
-0 0 -0 3 22461030 0 34 237 0
-0.0075446428 0.51578212 0.0068186037 21 22560090 11 34 221 517
-0.0043712277 0.50284213 0.0075986465 42 22655630 22 34 231 504
0 0 -0 10 22755630 0 34 214 0
0 0 -0 4 22852160 0 34 209 0
0.0047079888 0.49285701 0.0081986785 13 22951550 7 34 209 494
0 0 -0 5 23046890 0 34 193 0
0 0 -0 3 23144630 0 34 211 0
0 0 -0 10 23241510 0 34 222 0
0.070828341 1.7691439 -0.068605497 204 23338800 37 34 244 1774
0.081682265 1.768676 -0.068605497 240 23438450 44 34 257 1774
0.092315346 1.7641547 -0.068365484 232 23534180 43 34 245 1770
0.10253268 1.7535915 -0.067765452 205 23634100 38 34 252 1760
0.11275722 1.7449616 -0.067285426 176 23730410 32 34 273 1752
0.12295251 1.7372681 -0.066865399 175 23830320 32 34 249 1745
0.1328999 1.7275252 -0.066325374 165 23925970 30 34 218 1736
0.14324231 1.7236936 -0.06614536 186 24024450 34 34 242 1733
0.15299617 1.713836 -0.065605335 158 24122420 35 34 252 1724
0.1633148 1.710878 -0.065485328 203 24220530 45 34 250 1722
0.17267334 1.6989224 -0.064825289 186 24318070 42 34 248 1711
0.18232886 1.6908857 -0.06440527 196 24416550 44 34 272 1704
0.19166137 1.6808115 -0.063865237 179 24515050 40 34 240 1695
0.20087716 1.670687 -0.063325211 187 24610530 42 34 293 1686
0.21035881 1.6634829 -0.062965192 209 24711970 47 34 271 1680
0.22016072 1.6591933 -0.062785178 228 24805840 51 34 283 1677
0.22866009 1.6459508 -0.062065139 199 24906170 45 34 278 1665
0.2375886 1.6366168 -0.061585113 201 25002860 45 34 271 1657
0.24701871 1.6311818 -0.0613451 194 25101100 43 34 272 1653
0.25544354 1.6197792 -0.060745068 226 25198560 51 34 257 1643
0.26455766 1.6132582 -0.060445052 236 25297160 53 34 221 1638
0.27326137 1.6047193 -0.060025029 216 25395170 48 34 275 1631
0.28257447 1.6000646 -0.059845019 189 25491600 42 34 301 1628
0.29074836 1.5894676 -0.05930499 209 25591270 47 34 278 1619
0.30011949 1.5856931 -0.059184983 186 25686360 42 34 277 1617
0.30906707 1.5799052 -0.05894497 190 25787550 43 34 244 1613
0.31755477 1.5721114 -0.058584951 174 25881630 39 34 217 1607
0.32575238 1.5632964 -0.058164928 187 25982220 42 34 260 1600
0.33449012 1.5573666 -0.057924915 182 26078260 41 34 233 1596
0.34273121 1.5494404 -0.057564896 164 26176270 37 34 245 1590
0.35021558 1.5385537 -0.057024866 187 26273460 42 34 200 1581
0.35780933 1.5286051 -0.05654484 177 26370330 40 34 246 1573
0.36600214 1.5215313 -0.056244824 178 26469170 40 34 236 1568
0.37460545 1.5163517 -0.056064814 192 26565800 43 34 255 1565
0.38266334 1.5091898 -0.055764798 200 26664590 45 34 225 1560
0.391155 1.5039173 -0.055584788 162 26760260 36 34 247 1557
0.39907706 1.4966698 -0.055284772 181 26858890 41 34 267 1552
0.40719053 1.490344 -0.055044759 178 26954430 40 34 236 1548
0.41469842 1.4820541 -0.05468474 192 27054070 43 34 251 1542
0.42267478 1.4756461 -0.054444727 186 27150660 42 34 239 1538
0.42945507 1.4653676 -0.053964701 181 27248730 52 34 253 1530
0.43814915 1.4617496 -0.053904697 180 27345820 52 34 229 1529
0.44593006 1.4552191 -0.053664684 204 27442680 59 34 230 1525
0.45334655 1.4476966 -0.053364668 172 27541320 49 34 246 1520
0.46160755 1.4429878 -0.053244662 180 27636530 52 34 241 1518
0.46951538 1.4372842 -0.053064652 185 27736770 53 34 240 1515
0.47800726 1.4334302 -0.053004649 201 27830900 58 34 281 1514
0.48549718 1.4266938 -0.052764636 175 27931300 50 34 243 1510
0.49292251 1.4199195 -0.052524623 174 28025680 50 34 287 1506
0.500283 1.413108 -0.05228461 174 28124700 50 34 252 1502
0.50723714 1.4053217 -0.051984593 167 28221440 48 34 249 1497
0.51515609 1.4003112 -0.051864587 167 28320070 48 34 255 1495
0.52232689 1.393389 -0.051624574 200 28417770 57 34 241 1491
0.52907354 1.3855001 -0.051324558 214 28515880 62 34 270 1486
0.53647184 1.3794397 -0.051144548 200 28614760 57 34 272 1483
0.54307562 1.3714867 -0.050844532 182 28709250 52 34 244 1478
0.55035347 1.3653542 -0.050664522 194 28810000 56 34 234 1475
0.55795801 1.3601067 -0.050544515 208 28904350 60 34 284 1473
0.56474477 1.352977 -0.050304502 197 29005070 57 34 249 1469
0.57146513 1.3458155 -0.050064489 194 29101230 56 34 277 1465
0.57851726 1.3395379 -0.049884479 201 29199290 58 34 271 1462
0.58591777 1.3341373 -0.049764473 174 29297640 50 34 270 1460
0.59245485 1.3268757 -0.04952446 186 29394730 53 34 260 1456
0.59933996 1.3204921 -0.04934445 181 29493960 52 34 244 1453
0.60701042 1.3158845 -0.049284447 187 29590720 54 34 246 1452
0.61379457 1.3094273 -0.049104437 182 29688720 52 34 281 1449
0.62181747 1.3056365 -0.049104437 184 29784530 53 34 278 1449
0.62937975 1.3008991 -0.049044434 199 29884010 57 34 264 1448
0.63690734 1.2961183 -0.048984431 177 29979960 51 34 259 1447
0.6444 1.2912939 -0.048924427 193 30081190 55 34 278 1446
0.65185738 1.2864265 -0.048864424 168 30175890 48 34 262 1445
0.65927935 1.2815162 -0.048804421 171 30275270 49 34 267 1444
0.66620106 1.2756798 -0.048684414 202 30372290 58 34 323 1442
0.67260605 1.2689261 -0.048504405 215 30468520 62 34 262 1439
0.67895329 1.2621421 -0.048324395 194 30567210 56 34 286 1436
0.68668485 1.2579523 -0.048324395 167 30664020 48 34 262 1436
0.69196004 1.249356 -0.048024379 195 30763470 56 34 296 1431
0.69961292 1.2450867 -0.048024379 190 30859350 55 34 280 1431
0.70574921 1.238173 -0.047844369 169 30959510 49 34 277 1428
0.71333319 1.2338194 -0.047844369 171 31054700 49 34 276 1428
0.71936828 1.2268403 -0.047664359 186 31154490 53 34 270 1425
0.7243194 1.2181206 -0.047364343 204 31250930 59 34 291 1420
0.7322979 1.2145067 -0.047424346 186 31349040 53 34 321 1421
0.73921311 1.2091404 -0.047364343 197 31445380 57 34 293 1420
0.74450511 1.2011942 -0.04712433 216 31543420 62 34 301 1416
0.75132805 1.1957597 -0.047064327 179 31642630 51 34 254 1415
0.7575736 1.1894463 -0.04694432 181 31737100 52 34 282 1413
0.76485765 1.1847755 -0.04694432 165 31838320 47 34 283 1413
0.77211291 1.1800601 -0.04694432 191 31933930 55 34 277 1413
0.77878505 1.1744699 -0.046884317 214 32034540 62 34 271 1412
0.78597683 1.1696694 -0.046884317 177 32129130 51 34 279 1412
0.79201066 1.1631777 -0.04676431 213 32228570 61 34 296 1410
0.79799443 1.1566561 -0.046644304 162 32325360 46 34 240 1408
0.80507648 1.1517379 -0.046644304 198 32423650 57 34 270 1408
0.81154907 1.1459634 -0.046584301 183 32521690 53 34 280 1407
0.81798106 1.1401529 -0.046524297 177 32618020 51 34 245 1406
0.82201564 1.1310836 -0.046224281 195 32716530 56 34 258 1401
0.83131677 1.129227 -0.046464294 180 32812650 52 34 263 1405
0.83643293 1.1217095 -0.046284284 218 32912290 63 34 248 1402
0.84329987 1.116556 -0.046284284 224 33006200 64 34 269 1402
0.85135257 1.1129428 -0.046404291 194 33106410 56 34 270 1404
0.85816544 1.1076981 -0.046404291 192 33201860 55 34 258 1404
0.8624723 1.0992775 -0.046164278 220 33300890 63 34 257 1400
0.86982429 1.0947444 -0.046224281 212 33398710 61 34 280 1401
0.87652516 1.0893867 -0.046224281 207 33495390 59 34 274 1401
0.88066202 1.0808998 -0.045984268 216 33594530 62 34 261 1397
0.88855267 1.0770121 -0.046104275 193 33691470 55 34 289 1399
0.89578652 1.072304 -0.046164278 202 33791480 58 34 267 1400
0.90299606 1.0675476 -0.046224281 197 33886970 57 34 256 1401
0.90952939 1.0619868 -0.046224281 196 33987110 56 34 249 1401
0.91799688 1.0586429 -0.046404291 179 34081050 51 34 270 1404
0.92447531 1.0529902 -0.046404291 183 34180240 53 34 267 1404
0.93224955 1.0487862 -0.046524297 193 34277210 55 34 260 1406
0.9379974 1.0423062 -0.046464294 212 34376720 61 34 249 1405
0.94707274 1.0394748 -0.046704307 198 34473810 57 34 299 1409
0.95275414 1.0329124 -0.046644304 211 34572020 61 34 312 1408
0.96044081 1.0285022 -0.04676431 198 34669110 57 34 286 1410
0.96673346 1.0225897 -0.04676431 164 34765520 47 34 235 1410
0.9729898 1.0166386 -0.04676431 172 34865290 49 34 270 1410
0.97920942 1.0106493 -0.04676431 211 34960600 61 34 296 1410
0.98399019 1.0032008 -0.046644304 234 35061010 67 34 276 1408
0.99153793 0.99855685 -0.04676431 213 35155980 61 34 284 1410
0.99906564 0.99385798 -0.046884317 197 35255560 57 34 247 1412
1.005859 0.98840672 -0.04694432 190 35353180 55 34 280 1413
1.0126231 0.9829095 -0.047004323 199 35450650 57 34 275 1414
1.018635 0.97667766 -0.047004323 200 35548200 57 34 282 1414
1.0253354 0.97109336 -0.047064327 189 35645850 54 34 289 1415
1.0320054 0.96546358 -0.04712433 200 35744460 57 34 264 1416
1.0371749 0.9584378 -0.047064327 199 35841600 57 34 257 1415
1.0415579 0.95071411 -0.04694432 190 35940730 55 34 210 1413
1.0518315 0.94830304 -0.04730434 177 36036150 51 34 244 1419
1.0576304 0.94183123 -0.04730434 167 36137060 48 34 238 1419
1.0633894 0.93532401 -0.04730434 206 36232550 59 34 224 1419
1.0743964 0.93334901 -0.047724362 184 36332660 53 34 276 1426
1.0816219 0.92803478 -0.047844369 186 36429310 53 34 266 1428
1.0880592 0.92202377 -0.047904372 181 36526720 52 34 287 1429
1.0952308 0.91660714 -0.048024379 182 36624130 52 34 284 1431
1.1023767 0.91113716 -0.048144385 173 36721020 50 34 264 1433
1.1071715 0.90372699 -0.048084382 184 36820630 53 34 279 1432
1.1142538 0.89816499 -0.048204388 170 36916700 49 34 285 1434
1.1213093 0.89255005 -0.048324395 167 37016280 48 34 279 1436
1.1275512 0.88626766 -0.048384398 170 37111120 49 34 251 1437
1.1329681 0.87933242 -0.048384398 186 37210560 53 34 286 1437
1.1399302 0.87357402 -0.048504405 174 37306800 50 34 246 1439
1.1468643 0.86776316 -0.048624411 175 37406390 50 34 265 1441
1.15377 0.86190015 -0.048744418 172 37503830 49 34 283 1443
1.1630619 0.8577556 -0.049044434 185 37602850 53 34 282 1448
1.1691116 0.8511883 -0.049104437 168 37700550 48 34 290 1449
1.1775612 0.84631997 -0.04934445 181 37797700 52 34 247 1453
1.1819162 0.83850336 -0.049284447 190 37896790 55 34 254 1452
1.1894966 0.8329463 -0.049464457 167 37991940 48 34 293 1455
1.1970533 0.82732779 -0.049644466 173 38092160 50 34 263 1458
1.2045858 0.82164782 -0.049824476 159 38186730 46 34 302 1461
1.2120935 0.81590647 -0.050004486 180 38286590 52 34 308 1464
1.2195759 0.81010389 -0.050184496 182 38382230 52 34 282 1467
1.2261964 0.80369526 -0.050304502 196 38480570 56 34 243 1469
1.232784 0.79723579 -0.050424509 186 38577550 53 34 278 1471
1.2401816 0.79126036 -0.050604519 179 38675470 51 34 244 1474
1.2450132 0.78363585 -0.050604519 202 38773750 58 34 226 1474
1.2506475 0.77650601 -0.050664522 186 38871220 53 34 284 1475
1.2562413 0.76933652 -0.050724525 184 38970160 53 34 240 1476
1.2660732 0.76469636 -0.051084545 135 39065240 39 34 249 1482
1.2707416 0.75691348 -0.051084545 164 39165260 47 34 237 1482
1.2753619 0.74910212 -0.051084545 147 39259920 42 34 240 1482
1.2816646 0.74225831 -0.051204551 106 39359990 30 34 220 1484
1.3000861 0.74226147 -0.052164603 66 39455730 19 34 220 1500
1.3176841 0.74157894 -0.053064652 43 39554420 12 34 201 1515
1.319587 0.73203415 -0.052884642 39 39651430 11 34 217 1512
1.3372107 0.73107123 -0.053784691 45 39748870 13 34 217 1527
1.3478314 0.72615039 -0.054204714 32 39847510 9 34 225 1534
1.3566761 0.72019511 -0.05450473 21 39942800 4 34 206 1539
1.3654983 0.71415859 -0.054804746 15 40042640 3 34 178 1544
1.37874 0.71031511 -0.055404779 20 40138300 4 34 210 1554
1.3777245 0.69914562 -0.055044759 9 40238760 2 34 214 1548
0 0 -0 6 40333870 0 34 207 0
1.3862004 0.68218619 -0.055044759 9 40433110 2 34 237 1548
1.4011534 0.67886257 -0.055764798 6 40529120 1 34 202 1560
0 0 -0 5 40627320 0 34 237 0
0 0 -0 4 40724530 0 34 237 0
0 0 -0 5 40821440 0 34 220 0
0 0 -0 4 40920680 0 34 235 0
0 0 -0 4 41016840 0 34 206 0
0 0 -0 6 41117710 0 34 213 0
0 0 -0 4 41211990 0 34 212 0
0 0 -0 7 41312130 0 34 235 0
0 0 -0 3 41407820 0 34 229 0
1.5103914 0.62031221 -0.060325045 6 41506090 1 34 211 1636
0 0 -0 3 41604530 0 34 206 0
0 0 -0 4 41701790 0 34 233 0
0 0 -0 7 41800530 0 34 213 0
1.5428917 0.58978713 -0.061465107 30 41897110 6 34 248 1655
1.5034522 0.56428248 -0.058704957 126 41996610 28 34 287 1609
1.5153241 0.55813074 -0.059244987 140 42092220 31 34 260 1618
1.5234183 0.55050689 -0.059545003 141 42191750 31 34 290 1623
1.5333593 0.54346687 -0.059965026 127 42286240 28 34 283 1630
1.5470456 0.53762686 -0.060625061 151 42386610 34 34 273 1641
1.5607177 0.53163928 -0.061285097 168 42481590 38 34 252 1652
1.5686884 0.52362156 -0.061585113 156 42581210 35 34 325 1657
1.5785184 0.51614183 -0.062005136 139 42678280 31 34 274 1664
1.5883155 0.50856107 -0.062425159 147 42775560 33 34 308 1671
1.5971254 0.50058323 -0.062785178 155 42874400 35 34 295 1677
1.6058969 0.49251637 -0.063145198 147 42970540 33 34 281 1683
1.6146295 0.48436064 -0.063505217 179 43069160 40 34 300 1689
1.6242807 0.47639483 -0.063925244 162 43163540 36 34 260 1696
1.6319743 0.46778327 -0.064225256 192 43262750 43 34 271 1701
1.6405851 0.45936203 -0.064585276 203 43358190 45 34 268 1707
1.6491537 0.45085266 -0.064945295 200 43457930 45 34 296 1713
1.6547842 0.44149029 -0.065125309 237 43554440 53 34 283 1716
1.662295 0.43257397 -0.065425321 247 43652980 55 34 288 1721
1.6716949 0.42406839 -0.065845348 228 43750070 42 34 270 1728
1.6781439 0.41475201 -0.066085361 240 43847840 44 34 266 1732
1.680657 0.40444732 -0.066085361 267 43946970 49 34 252 1732
1.700611 0.39818305 -0.067165419 241 44043840 44 34 279 1750
1.7137339 0.39015359 -0.067825451 232 44143350 43 34 260 1761
1.726822 0.38197798 -0.068485491 224 44237870 41 34 258 1772
1.7408503 0.37386373 -0.06920553 193 44337780 35 34 269 1784
1.7519106 0.36498749 -0.069745556 234 44432170 43 34 239 1793
1.7619482 0.35579413 -0.070225582 220 44531400 40 34 287 1801
1.7778192 0.34762749 -0.071065627 215 44627350 39 34 250 1815
1.7799188 0.33671245 -0.071065627 243 44725680 45 34 279 1815
1.7976683 0.32862198 -0.072025679 227 44823370 42 34 275 1831
1.8035845 0.31827071 -0.072265692 245 44919880 45 34 258 1835
1.8192854 0.30951178 -0.073105738 257 45018930 47 34 242 1849
1.8329753 0.30025363 -0.073825777 254 45115760 47 34 269 1861
1.8535242 0.29191121 -0.074965842 225 45215400 41 34 296 1880
1.8641661 0.28185675 -0.075505875 210 45309440 38 34 290 1889
1.8787068 0.27224678 -0.076285914 237 45409110 43 34 269 1902
1.8922104 0.26233396 -0.077005953 218 45504970 40 34 320 1914
1.9036827 0.25200778 -0.077605985 225 45604350 27 34 287 1924
1.9141088 0.24142781 -0.078146018 219 45701420 27 34 289 1933
1.9224935 0.23049583 -0.078566037 214 45799080 26 34 260 1940
1.9347841 0.21991268 -0.079226077 253 45898270 31 34 256 1951
1.9450313 0.20897819 -0.079766102 216 45994960 26 34 263 1960
1.9572036 0.19812316 -0.080426142 231 46093580 28 34 255 1971
1.9653398 0.18675701 -0.080846161 235 46188610 29 34 261 1978
1.9783822 0.17572993 -0.0815662 260 46288570 32 34 253 1990
1.989373 0.16438939 -0.082166232 267 46383570 33 34 253 2000
2.0202076 0.15440224 -0.08396633 333 46484280 41 34 293 2030
2.0430262 0.143499 -0.085286401 354 46580510 43 34 274 2052
2.0508423 0.13139357 -0.085706428 375 46679030 46 34 263 2059
2.0595829 0.11925334 -0.086186454 382 46776070 47 34 299 2067
2.0692487 0.10706042 -0.086726479 394 46873430 48 34 308 2076
2.0888143 0.095188498 -0.087866545 442 46971790 60 34 304 2095
2.1073141 0.083043069 -0.088946603 474 47067940 41 34 329 2113
2.1097794 0.070173815 -0.08906661 462 47167480 40 34 325 2115
2.1251385 0.05760438 -0.089966655 496 47263510 44 34 350 2130
2.1284459 0.044620775 -0.090146668 459 47364430 39 34 341 2133
2.1366646 0.031663258 -0.090626694 492 47459560 43 34 380 2141
2.1557839 0.018681118 -0.091766752 846 47559180 99 34 516 2160
2.1348958 0.0054394044 -0.090506688 582 47655310 55 34 404 2139
2.1348891 -0.0076601724 -0.090506688 552 47753780 51 34 414 2139
2.1228242 -0.020620307 -0.089786649 561 47852250 52 34 389 2127
2.1126773 -0.03346812 -0.089186616 562 47950190 52 34 352 2117
2.1074426 -0.046311416 -0.088886596 535 48048920 49 34 338 2112
2.0891593 -0.058702171 -0.087806538 617 48145030 96 34 353 2094
2.0757918 -0.071050763 -0.087026499 624 48243700 98 34 348 2081
2.063349 -0.083279744 -0.08630646 633 48339040 100 34 356 2069
2.0508349 -0.095358729 -0.085586421 636 48438050 100 34 369 2057
2.0392473 -0.10734174 -0.084926382 613 48533740 95 34 352 2046
2.0315757 -0.1194284 -0.084506363 602 48633050 93 34 336 2039
2.0258248 -0.13155831 -0.084206343 621 48729990 97 34 323 2034
2.0140285 -0.14318548 -0.083546311 598 48829210 92 34 351 2023
2.0081367 -0.1551462 -0.083246291 520 48927150 75 34 336 2018
1.9962066 -0.16653006 -0.082586259 503 49023750 72 34 342 2007
1.9891831 -0.17822886 -0.082226239 512 49122240 73 34 312 2001
1.9810978 -0.18975057 -0.081806213 439 49217210 59 34 348 1994
1.9640108 -0.20025024 -0.080846161 418 49317270 51 34 306 1978
1.9617529 -0.21218804 -0.080786161 440 49411930 59 34 336 1977
1.9514905 -0.22318199 -0.080246128 434 49512580 59 34 368 1968
1.9461213 -0.23466575 -0.080006115 413 49608710 51 34 335 1964
1.9406848 -0.24609204 -0.079766102 470 49707580 65 34 375 1960
1.9351815 -0.25746045 -0.079526089 413 49804920 51 34 350 1956
1.9276351 -0.26849112 -0.07916607 373 49902380 46 34 358 1950
1.9259514 -0.28031379 -0.07916607 383 50000340 47 34 333 1950
1.9005173 -0.28848091 -0.077725992 301 50097250 37 34 358 1926
1.8957546 -0.29966307 -0.077545986 309 50195990 38 34 310 1923
1.886003 -0.30997777 -0.07706596 283 50291530 52 34 331 1915
1.8732458 -0.31967413 -0.07640592 246 50391500 45 34 360 1904
1.8712491 -0.33116212 -0.07640592 301 50486110 55 34 345 1904
1.8593674 -0.34081697 -0.075805888 284 50586250 52 34 358 1894
1.847438 -0.35033858 -0.075205855 239 50681060 44 34 351 1884
1.8364412 -0.35992077 -0.07466583 282 50780450 52 34 340 1875
1.8312644 -0.37058187 -0.074485816 338 50877970 62 34 323 1872
1.8230959 -0.38057473 -0.074125797 314 50975610 58 34 326 1866
1.8138986 -0.39026925 -0.07370577 345 51074550 63 34 320 1859
1.7949103 -0.3976846 -0.072685719 284 51170730 52 34 301 1842
1.7885455 -0.4077943 -0.072445706 299 51269940 55 34 306 1838
1.7743536 -0.41600087 -0.071725667 234 51365590 43 34 252 1826
1.7640084 -0.42499256 -0.071245641 268 51465880 49 34 273 1818
1.7555568 -0.43435687 -0.070885621 257 51561430 47 34 289 1812
1.7451231 -0.44313782 -0.070405595 209 51660930 38 34 291 1804
1.7385097 -0.45282227 -0.070165582 249 51757570 46 34 251 1800
1.7308793 -0.46218255 -0.069865562 209 51856570 38 34 258 1795
1.724162 -0.47173193 -0.069625549 222 51953240 41 34 287 1791
1.7164322 -0.48094478 -0.069325536 214 52051050 39 34 275 1786
1.7096133 -0.490358 -0.069085523 198 52149040 36 34 282 1782
1.7017865 -0.49942243 -0.068785504 208 52244350 38 34 267 1777
1.6929576 -0.50812018 -0.068425484 206 52344500 38 34 283 1771
1.6859936 -0.51731843 -0.068185471 219 52438660 40 34 277 1767
1.6799322 -0.52675122 -0.068005465 243 52538420 45 34 264 1764
1.6700191 -0.53490245 -0.067585438 238 52634040 44 34 254 1757
1.6638615 -0.54420197 -0.067405432 255 52733980 47 34 281 1754
1.6585989 -0.55376434 -0.067285426 290 52831960 53 34 277 1752
1.6495051 -0.56198627 -0.066925406 257 52929770 47 34 272 1746
1.6403731 -0.57011753 -0.066565387 247 53026560 45 34 292 1740
1.6274434 -0.57681525 -0.065965354 205 53124230 38 34 279 1730
1.6191835 -0.58508307 -0.065665334 182 53223540 41 34 293 1725
1.6099478 -0.59292406 -0.065305315 182 53319410 41 34 312 1719
1.6034782 -0.60173261 -0.065125309 184 53419400 41 34 280 1716
1.5997558 -0.61156005 -0.065125309 228 53513960 51 34 257 1716
1.5922559 -0.61990708 -0.064885296 215 53614870 48 34 286 1712
1.5874952 -0.62929529 -0.064825289 231 53710160 52 34 315 1711
1.5799049 -0.63752121 -0.064585276 192 53809080 43 34 259 1707
1.5778083 -0.64796609 -0.064705282 226 53904960 51 34 293 1709
1.5682821 -0.6553129 -0.064345263 182 54002350 41 34 272 1703
1.5623963 -0.66413802 -0.064225256 186 54100790 42 34 292 1701
1.5555459 -0.67251724 -0.06404525 180 54197860 40 34 223 1698
1.5495645 -0.68124145 -0.063925244 195 54298070 44 34 263 1696
1.5444449 -0.69032705 -0.063865237 223 54393730 50 34 300 1695
1.5374568 -0.69854534 -0.063685231 216 54494340 48 34 303 1692
1.5295206 -0.70628327 -0.063445218 215 54589560 48 34 289 1688
1.5206449 -0.71352392 -0.063145198 221 54688020 50 34 297 1683
1.5144383 -0.72197759 -0.063025191 217 54783080 49 34 290 1681
1.5072877 -0.72994465 -0.062845185 210 54881950 47 34 290 1678
1.5000966 -0.73785126 -0.062665172 223 54979660 50 34 285 1675
1.4946491 -0.74659359 -0.062605172 213 55077750 48 34 297 1674
1.4891508 -0.75529683 -0.062545165 196 55176510 44 34 302 1673
1.4827156 -0.76350164 -0.062425159 196 55272500 44 34 260 1671
1.476236 -0.77165592 -0.062305152 198 55371920 44 34 294 1669
1.4705927 -0.78022939 -0.062245149 177 55466750 40 34 316 1668
1.4631444 -0.78781199 -0.062065139 194 55566570 43 34 290 1665
1.4547837 -0.7948519 -0.061825126 221 55661980 50 34 307 1661
1.4490074 -0.80327725 -0.061765123 182 55759890 41 34 294 1660
1.4414448 -0.81067872 -0.061585113 187 55856890 42 34 243 1657
1.4329802 -0.81752098 -0.0613451 230 55955580 52 34 300 1653
1.4262115 -0.82529402 -0.061225094 208 56053630 47 34 267 1651
1.4194014 -0.83301485 -0.061105087 211 56151530 47 34 274 1649
1.4125503 -0.84068322 -0.060985081 224 56250070 50 34 300 1647
1.4065121 -0.84881681 -0.060925078 215 56347520 48 34 265 1646
1.4021275 -0.85795408 -0.060985081 191 56447420 43 34 281 1647
1.3968369 -0.86654121 -0.060985081 226 56542580 51 34 258 1647
1.3906499 -0.87456226 -0.060925078 239 56641450 54 34 276 1646
1.3844171 -0.88254005 -0.060865074 203 56736130 45 34 281 1645
1.3781388 -0.89047426 -0.060805071 204 56835940 46 34 264 1644
1.3701478 -0.89726681 -0.060625061 225 56932780 50 34 269 1641
1.3646165 -0.90565699 -0.060625061 191 57030040 43 34 302 1641
1.3582069 -0.91345394 -0.060565058 212 57129490 47 34 284 1640
1.3492826 -0.91951388 -0.060325045 185 57226820 41 34 265 1636
1.3419752 -0.92663717 -0.060205039 195 57327220 44 34 269 1634
1.3354477 -0.93427968 -0.060145035 191 57422580 43 34 274 1633
1.3296899 -0.94245625 -0.060145035 187 57522370 42 34 278 1633
1.3206446 -0.94826049 -0.059905022 165 57617430 37 34 278 1629
1.3156071 -0.95693517 -0.059965026 171 57716750 38 34 248 1630
1.3089085 -0.96439546 -0.059905022 183 57812810 41 34 305 1629
1.3029665 -0.97240859 -0.059905022 170 57912050 38 34 261 1629
1.2969754 -0.98038512 -0.059905022 175 58008380 39 34 262 1629
1.2909354 -0.98832476 -0.059905022 190 58106470 43 34 256 1629
1.2832721 -0.995 -0.059785016 198 58205230 44 34 294 1627
1.2755758 -1.0016184 -0.059665009 203 58302450 45 34 265 1625
1.266287 -1.0069335 -0.059424996 202 58401170 45 34 293 1621
1.2593088 -1.0140563 -0.059364993 174 58496420 39 34 292 1620
1.2507468 -1.019866 -0.059184983 195 58597370 44 34 287 1617
1.2452337 -1.0281587 -0.059244987 173 58691580 39 34 283 1618
1.2381374 -1.0351378 -0.059184983 165 58792090 37 34 244 1617
1.2317625 -1.0427153 -0.059184983 204 58887480 46 34 269 1617
1.226854 -1.0515566 -0.05930499 215 58986790 48 34 262 1619
1.2203786 -1.0590646 -0.05930499 212 59084580 47 34 239 1619
1.2146056 -1.0671936 -0.059364993 213 59181770 48 34 310 1620
1.2102669 -1.0766221 -0.059545003 192 59279630 43 34 275 1623
1.2058583 -1.0860375 -0.059725013 198 59376380 44 34 251 1626
1.1999078 -1.0940905 -0.059785016 177 59474610 40 34 272 1627
1.1946355 -1.1027901 -0.059905022 192 59569930 43 34 288 1629
1.1878464 -1.1100996 -0.059905022 186 59670060 42 34 264 1629
1.1810126 -1.1173671 -0.059905022 202 59765650 45 34 262 1629
1.1734152 -1.1239004 -0.059845019 212 59865740 47 34 281 1628
1.1672119 -1.1317759 -0.059905022 207 59961610 46 34 279 1629
1.1588242 -1.1375144 -0.059785016 202 60060690 45 34 231 1627
1.1518228 -1.1446034 -0.059785016 175 60157940 39 34 267 1627
1.144076 -1.1509396 -0.059725013 197 60255740 44 34 228 1626
1.1390852 -1.1600797 -0.059905022 190 60353510 43 34 262 1629
1.133332 -1.1684837 -0.060025029 187 60450270 42 34 251 1631
1.1254522 -1.1746932 -0.059965026 206 60550140 46 34 243 1630
1.1195918 -1.1830301 -0.060085032 193 60644080 43 34 279 1632
1.1123118 -1.1898776 -0.060085032 204 60743910 46 34 283 1632
1.10499 -1.1966802 -0.060085032 216 60838450 48 34 284 1632
1.0969557 -1.2026986 -0.060025029 204 60939310 46 34 272 1631
1.0908879 -1.2108933 -0.060145035 199 61035360 45 34 273 1633
1.0840992 -1.2183114 -0.060205039 195 61134940 44 34 265 1634
1.0792319 -1.227946 -0.060445052 177 61232210 40 34 237 1638
1.0736345 -1.2368112 -0.060625061 183 61329200 41 34 268 1641
1.0679688 -1.2456537 -0.060805071 202 61427890 45 34 292 1644
1.0622351 -1.2544734 -0.060985081 167 61523440 37 34 265 1647
1.0564332 -1.2632694 -0.061165091 181 61622760 41 34 296 1650
1.0505633 -1.2720414 -0.0613451 176 61717870 39 34 288 1653
1.0421094 -1.2776885 -0.061285097 197 61817570 44 34 259 1652
1.0348743 -1.2848376 -0.0613451 168 61914200 38 34 283 1653
1.0269712 -1.2911633 -0.0613451 161 62012940 36 34 240 1653
1.0202587 -1.2990135 -0.061465107 150 62110730 34 34 278 1655
1.0128787 -1.3060395 -0.06152511 177 62209520 40 34 247 1656
1.0066607 -1.3146118 -0.06170512 169 62308010 38 34 248 1659
1.0003756 -1.323157 -0.06188513 185 62404250 41 34 270 1662
0.99402356 -1.3316743 -0.062065139 157 62502810 35 34 300 1665
0.9876045 -1.3401635 -0.062245149 143 62598930 32 34 272 1668
0.9822892 -1.3502412 -0.062545165 162 62698690 36 34 302 1673
0.97572666 -1.3586795 -0.062725179 182 62794000 41 34 256 1676
0.9690975 -1.3670881 -0.062905185 171 62894010 38 34 251 1679
0.96126127 -1.3738279 -0.062965192 158 62991220 35 34 272 1680
0.95507455 -1.3829912 -0.063205205 176 63089160 39 34 302 1684
0.94769108 -1.3904778 -0.063325211 161 63185750 36 34 263 1686
0.94191694 -1.4004145 -0.063625224 183 63284300 41 34 265 1691
0.93330646 -1.4061676 -0.063625224 140 63382600 31 34 294 1691
0.92684036 -1.4152132 -0.063865237 179 63480240 40 34 247 1695
0.91975856 -1.4233927 -0.06404525 162 63579440 36 34 267 1698
0.91100746 -1.4290094 -0.06404525 169 63675170 38 34 276 1698
0.90433973 -1.4379573 -0.064285263 184 63776460 41 34 303 1702
0.89759636 -1.4468771 -0.064525276 183 63872030 41 34 240 1706
0.88922054 -1.4532101 -0.064585276 202 63972560 45 34 273 1707
0.88234204 -1.4620622 -0.064825289 198 64069300 44 34 260 1711
0.87589675 -1.4717436 -0.065125309 203 64167670 45 34 277 1716
0.86986899 -1.4822628 -0.065485328 201 64264830 45 34 276 1722
0.86225134 -1.4901679 -0.065665334 193 64362620 43 34 278 1725
0.85555446 -1.4997715 -0.065965354 213 64460880 39 34 231 1730
0.8482849 -1.5084776 -0.066205367 198 64556900 36 34 236 1734
0.84045875 -1.5162767 -0.066385373 184 64657360 34 34 251 1737
0.83256876 -1.5240364 -0.066565387 162 64752650 30 34 241 1740
0.82461518 -1.5317564 -0.066745393 162 64853680 30 34 270 1743
0.81752956 -1.5412018 -0.067045413 193 64949320 35 34 275 1748
0.80989867 -1.549732 -0.067285426 198 65050090 36 34 239 1752
0.80264866 -1.5591151 -0.067585438 191 65146420 35 34 294 1757
0.79486454 -1.5675759 -0.067825451 190 65243660 35 34 275 1761
0.78745067 -1.5768939 -0.068125471 226 65341910 41 34 266 1766
0.77951384 -1.585283 -0.068365484 217 65438990 40 34 240 1770
0.7719366 -1.5945333 -0.068665497 205 65538360 38 34 257 1775
0.76384765 -1.6028482 -0.06890551 193 65634170 35 34 234 1779
0.75737303 -1.6147424 -0.069385536 173 65735410 32 34 266 1787
0.74953228 -1.6238954 -0.069685556 187 65830690 34 34 250 1792
0.74201834 -1.6339227 -0.070045575 201 65930480 37 34 253 1798
0.73521966 -1.6457433 -0.070525602 213 66026000 39 34 273 1806
0.72870326 -1.6584563 -0.071065627 228 66124510 42 34 257 1815
0.72087675 -1.6683996 -0.071425647 200 66220280 37 34 262 1821
0.7133438 -1.6792285 -0.071845673 195 66318340 36 34 267 1828
0.70608759 -1.6909497 -0.072325699 222 66418180 41 34 264 1836
0.6975835 -1.6998718 -0.072625712 235 66514810 43 34 251 1841
0.69011021 -1.7115328 -0.073105738 200 66614300 37 34 268 1849
0.68251991 -1.7231659 -0.073585764 242 66709140 44 34 258 1857
0.67337334 -1.7310456 -0.073825777 223 66809090 41 34 269 1861
0.66557229 -1.7426109 -0.074305803 228 66904470 42 34 275 1869
0.6566093 -1.7513391 -0.074605823 228 67004980 42 34 266 1874
0.6479069 -1.7609602 -0.074965842 260 67100980 48 34 261 1880
0.63810033 -1.7677214 -0.075145856 252 67198940 46 34 275 1883
0.62856627 -1.7753701 -0.075385869 242 67295450 44 34 266 1887
0.61928767 -1.7839121 -0.075685881 221 67393510 41 34 276 1892
0.60960835 -1.791461 -0.075925894 234 67492110 43 34 283 1896
0.60048705 -1.8008534 -0.076285914 210 67590170 38 34 282 1902
0.59188926 -1.8121002 -0.07676594 230 67689650 42 34 255 1910
0.58287388 -1.8223575 -0.077185966 245 67784440 45 34 304 1917
0.57642102 -1.8411514 -0.078146018 299 67884600 37 34 308 1933
0.56453228 -1.8427435 -0.078026012 259 67979520 32 34 294 1931
0.55776715 -1.8614813 -0.078986064 312 68078240 38 34 269 1947
0.54717076 -1.8677442 -0.07916607 300 68174070 37 34 282 1950
0.53815502 -1.8797084 -0.079706103 313 68272980 38 34 263 1959
0.53114784 -1.8993267 -0.080726154 388 68370500 48 34 273 1976
0.52078855 -1.9073675 -0.081026174 384 68468340 47 34 287 1981
0.51188082 -1.9211428 -0.081686206 465 68567280 64 34 304 1992
0.50083059 -1.9271473 -0.08186622 469 68664740 65 34 337 1995
0.49045548 -1.9359928 -0.082226239 468 68763910 65 34 264 2001
0.48070228 -1.9476922 -0.082766265 507 68859270 72 34 305 2010
0.46943626 -1.9535182 -0.082946278 479 68959700 67 34 299 2013
0.45924339 -1.9641412 -0.083426304 537 69055940 78 34 311 2021
0.44937643 -1.9766601 -0.084026337 542 69155840 79 34 317 2031
0.44043988 -1.9940072 -0.084926382 616 69252720 96 34 345 2046
0.42944086 -2.0025306 -0.085286401 635 69351280 100 34 328 2052
0.41875651 -2.0129492 -0.085766427 641 69449620 100 34 349 2060
0.40776509 -2.0223331 -0.086186454 633 69545910 100 34 334 2067
0.39705291 -2.0336177 -0.086726479 593 69645170 91 34 347 2076
0.38676763 -2.0477903 -0.087446518 587 69741520 89 34 323 2088
0.37650061 -2.0628951 -0.088226564 576 69841960 87 34 343 2101
0.36674789 -2.0818839 -0.089246616 572 69937040 53 34 387 2118
0.35628045 -2.097877 -0.090086661 576 70037210 54 34 343 2132
0.34594887 -2.1157904 -0.091046713 570 70132950 53 34 405 2148
0.33479813 -2.1297097 -0.091766752 515 70232660 46 34 381 2160
0.32348952 -2.1435716 -0.092486791 485 70328690 42 34 379 2172
0.31160018 -2.1544096 -0.093026824 548 70426940 50 34 370 2181
0.29918501 -2.1622152 -0.093386844 578 70525150 54 34 402 2187
0.28707251 -2.1729188 -0.093926869 603 70622070 58 34 377 2196
0.27557692 -2.1894987 -0.094826922 545 70722600 50 34 334 2211
0.2633048 -2.2010617 -0.095426954 533 70818120 49 34 351 2221
0.25134379 -2.2165246 -0.096267 570 70918550 53 34 306 2235
0.23867998 -2.2269592 -0.096807033 646 71014040 64 34 320 2244
0.22570056 -2.2353351 -0.097227052 671 71114210 68 34 304 2251
0.21355124 -2.2535746 -0.098247111 735 71210270 79 34 326 2268
0.20187689 -2.2797039 -0.099747188 803 71309740 91 34 335 2293
0.18828604 -2.2858746 -0.10004721 815 71405620 93 34 380 2298
0.17581238 -2.3078911 -0.10130727 868 71503760 75 34 368 2319
0.16287166 -2.3268523 -0.10238733 975 71601430 91 34 400 2337
0.14914805 -2.3367746 -0.10292736 950 71697330 88 34 439 2346
0.13542029 -2.3486087 -0.1035874 943 71797220 86 34 441 2357
0.12120548 -2.3533833 -0.10382741 1003 71892220 96 34 455 2361
0.10780744 -2.3780167 -0.10526749 934 71992750 85 34 482 2385
0.094261199 -2.4065633 -0.10694758 865 72086510 75 34 545 2413
0.079805754 -2.4170735 -0.10754761 842 72186650 71 34 483 2423
0.065476373 -2.4374752 -0.10874768 978 72283040 92 34 476 2443
0.050671287 -2.4458153 -0.1092277 963 72381660 89 34 454 2451
0.035817925 -2.4580574 -0.10994774 979 72478790 92 34 442 2463
0.020877233 -2.4791927 -0.11120781 1065 72575980 101 34 426 2484
0.0056837457 -2.5082219 -0.1129479 1142 72674580 100 34 433 2513
-0.0097721796 -2.5201876 -0.11366794 1121 72771290 98 34 422 2525
-0.025444308 -2.5380466 -0.11474801 1200 72870680 101 34 476 2543
-0.041353676 -2.5568056 -0.11588807 1153 72965840 100 34 460 2562
-0.057541884 -2.5774598 -0.11714814 1147 73066310 100 34 471 2583
-0.074045025 -2.6000066 -0.11852821 1122 73161820 98 34 555 2606
-0.090863086 -2.6234443 -0.11996829 1134 73260710 100 34 581 2630
-0.10776048 -2.6417861 -0.12110835 1091 73358120 93 34 606 2649
-0.12488636 -2.6600187 -0.12224841 1119 73456910 98 34 640 2668
-0.14213111 -2.6761465 -0.12326847 1149 73555090 100 34 551 2685
-0.1595179 -2.6911657 -0.12422852 1225 73651860 100 34 550 2701
-0.17682762 -2.7020879 -0.12494856 1178 73751280 96 34 493 2713
-0.19500516 -2.7228541 -0.12626863 857 73846980 55 34 402 2735
-0.2143119 -2.7544436 -0.12824874 667 73946180 37 34 344 2768
-0.23290865 -2.7729683 -0.1294488 578 74041440 29 34 355 2788
