# .PCD v0.7 - Point Cloud Data file format
VERSION 0.7
FIELDS x y z intensity t reflectivity ring ambient range
SIZE 4 4 4 4 4 2 1 2 4
TYPE F F F F U U U U U
COUNT 1 1 1 1 1 1 1 1 1
WIDTH 849
HEIGHT 1
VIEWPOINT 0 0 0 1 0 0 0
POINTS 849
DATA ascii
-1.0847397 -3.7298968 1.8429853 493 76977710 29 14 539 4287
-1.1216027 -3.7700253 1.8658921 500 77076190 30 14 497 4341
-1.1563532 -3.8011794 1.8845569 494 77173230 29 14 493 4385
-1.1985435 -3.8545229 1.9142509 500 77270680 32 14 511 4455
-1.2433572 -3.9135287 1.9469142 465 77369680 29 14 513 4532
-1.2785637 -3.9402683 1.9638822 444 77465420 28 14 523 4572
-1.3187159 -3.9804709 1.9876373 535 77565510 39 14 494 4628
-1.3562084 -4.0108943 2.0067263 322 77660470 19 14 442 4673
-1.4178214 -4.1094656 2.0597513 736 77759910 63 14 660 4798
-1.437282 -4.0844646 2.0516915 856 77856460 80 14 631 4779
-1.4617033 -4.0738645 2.050843 816 77954720 74 14 563 4777
-1.4826175 -4.0537667 2.0453284 522 78052050 37 14 553 4764
-1.5483737 -4.1540141 2.1000502 404 78148600 26 14 479 4893
-1.5944626 -4.1985955 2.1271989 351 78245310 23 14 465 4957
-1.6421386 -4.2452989 2.1556203 314 78343140 22 14 519 5024
-1.7064165 -4.3320007 2.2044032 409 78441890 29 14 455 5139
-1.7677643 -4.4079876 2.2480958 162 78537180 12 14 437 5242
-1.8235905 -4.4674578 2.2837286 118 78636570 9 14 409 5326
-1.870464 -4.5029988 2.3074837 130 78732350 11 14 405 5382
-2.4350224 -5.7588458 2.9522669 436 78832140 64 14 505 6902
-2.4703121 -5.7437963 2.9522669 489 78928060 74 14 492 6902
-2.5036914 -5.7243834 2.9501457 441 79027890 65 14 475 6897
-2.53582 -5.7022958 2.9467523 492 79125010 75 14 522 6889
-2.5647831 -5.6734309 2.939965 507 79223440 78 14 524 6873
-2.5900793 -5.637022 2.9293602 519 79321680 81 14 484 6848
-2.6230838 -5.6177425 2.9276633 522 79416350 81 14 515 6844
-2.6975448 -5.6857839 2.9713557 189 79516880 27 14 478 6947
-2.7816005 -5.7710605 3.0243807 207 79611450 29 14 453 7072
-2.8420799 -5.8051062 3.0511053 201 79712440 30 14 450 7135
-2.8970249 -5.8264666 3.0714669 35 79807950 5 14 434 7183
-2.9543819 -5.8514104 3.0939493 4 79906920 0 14 356 7236
-0 -0 0 4 80004980 0 14 400 0
-0 -0 0 6 80103020 0 14 349 0
-0 -0 0 5 80200430 0 14 363 0
-0 -0 0 4 80299050 0 14 355 0
-0 -0 0 5 80397240 0 14 365 0
-0 -0 0 4 80493220 0 14 348 0
-0 -0 0 5 80594410 0 14 376 0
-0 -0 0 4 80688900 0 14 372 0
-0 -0 0 4 80788890 0 14 333 0
-0 -0 0 6 80885330 0 14 356 0
-0 -0 0 4 80984240 0 14 318 0
-0 -0 0 5 81081660 0 14 367 0
-3.4890876 -5.7249308 3.1639423 4 81180690 0 14 362 7401
-0 -0 0 4 81278880 0 14 335 0
-0 -0 0 4 81375340 0 14 359 0
-0 -0 0 6 81473810 0 14 362 0
-0 -0 0 4 81570690 0 14 369 0
-0 -0 0 5 81670840 0 14 349 0
-0 -0 0 5 81765880 0 14 367 0
-0 -0 0 5 81865890 0 14 384 0
-0 -0 0 4 81962920 0 14 367 0
-0 -0 0 4 82062090 0 14 348 0
-0 -0 0 4 82159430 0 14 393 0
-0 -0 0 6 82257110 0 14 354 0
-0 -0 0 4 82356350 0 14 361 0
-0 -0 0 6 82452440 0 14 335 0
-0 -0 0 5 82551850 0 14 365 0
-0 -0 0 3 82647470 0 14 378 0
-0 -0 0 7 82747880 0 14 379 0
-0 -0 0 4 82842450 0 14 357 0
-0 -0 0 5 82942210 0 14 376 0
-0 -0 0 4 83038020 0 14 383 0
-3.901911 -4.9249058 2.9666896 116 83137090 16 14 358 6936
-3.9337578 -4.9029889 2.9679623 127 83234270 18 14 392 6939
-0 -0 0 5 83331290 0 14 365 0
-0 -0 0 4 83429980 0 14 346 0
-4.1683645 -5.0035934 3.074012 5 83526340 0 14 345 7189
-0 -0 0 4 83625750 0 14 355 0
-0 -0 0 3 83721920 0 14 372 0
-0 -0 0 4 83821440 0 14 387 0
-0 -0 0 4 83915900 0 14 398 0
-0 -0 0 4 84015190 0 14 376 0
-0 -0 0 5 84111580 0 14 369 0
-0 -0 0 5 84210820 0 14 369 0
-0 -0 0 6 84308870 0 14 384 0
-0 -0 0 3 84405510 0 14 359 0
-0 -0 0 4 84504250 0 14 394 0
-0 -0 0 5 84600120 0 14 358 0
-0 -0 0 5 84700000 0 14 373 0
-0 -0 0 4 84794450 0 14 361 0
-5.4864359 -5.5393319 3.6755269 7 84896140 1 14 361 8607
-5.517755 -5.5030069 3.67383 8 84992140 1 14 362 8603
-0 -0 0 5 85090880 0 14 371 0
-0 -0 0 4 85187570 0 14 360 0
-0 -0 0 6 85284970 0 14 364 0
-0 -0 0 4 85383080 0 14 380 0
-0 -0 0 4 85480110 0 14 388 0
-0 -0 0 5 85579580 0 14 382 0
-5.6894679 -5.2066326 3.6360762 11 85677310 2 14 361 8514
-5.7233243 -5.1734452 3.6373489 9 85776880 2 14 378 8517
-5.7144094 -5.1020665 3.611897 6 85871100 1 14 357 8457
-0 -0 0 4 85971440 0 14 373 0
-0 -0 0 3 86067220 0 14 379 0
-0 -0 0 4 86166110 0 14 370 0
-0 -0 0 4 86263620 0 14 390 0
-0 -0 0 6 86362310 0 14 390 0
-0 -0 0 5 86460350 0 14 389 0
-0 -0 0 8 86557160 0 14 367 0
-4.9580264 -4.0083489 3.009958 81 86657330 11 14 355 7038
-4.9952736 -3.9880126 3.0175936 134 86753440 19 14 411 7056
-5.103611 -4.0233846 3.0676491 10 86853530 1 14 366 7174
-5.146791 -4.0064435 3.0786781 7 86948890 1 14 385 7200
-5.1518817 -3.9599009 3.067225 22 87049050 3 14 363 7173
-5.1832995 -3.9336846 3.0714669 16 87144900 2 14 395 7183
-5.2131391 -3.9061465 3.0748603 28 87243640 4 14 377 7191
-5.2515764 -3.8848469 3.0833445 46 87340900 7 14 401 7211
-5.2789731 -3.8552186 3.0854654 45 87438030 6 14 375 7216
-5.3017936 -3.8222258 3.0850413 54 87536220 8 14 399 7215
-5.3251467 -3.7896225 3.0850413 78 87632640 11 14 414 7215
-5.3557129 -3.7620771 3.0892832 84 87732180 12 14 356 7225
-5.3891196 -3.7363605 3.095222 85 87827770 12 14 407 7239
-5.4007282 -3.69556 3.0888591 126 87927560 19 14 440 7224
-5.4300594 -3.6669087 3.0926769 138 88022820 20 14 392 7233
-5.4592423 -3.6380365 3.0964947 165 88123100 24 14 388 7242
-5.481462 -3.6044707 3.0964947 149 88220590 22 14 429 7242
-5.5125957 -3.5766778 3.1015849 128 88318360 19 14 392 7254
-5.536727 -3.5442491 3.1028576 107 88416520 16 14 394 7257
-5.5713921 -3.5184207 3.110069 77 88513430 11 14 384 7274
-5.6105614 -3.4951701 3.1198256 61 88612980 9 14 380 7297
-5.6890197 -3.4957235 3.1512163 29 88709110 4 14 375 7371
-5.710362 -3.4607506 3.1512163 18 88808750 3 14 387 7371
-0 -0 0 6 88903460 0 14 367 0
-0 -0 0 5 89002960 0 14 394 0
-0 -0 0 6 89098190 0 14 336 0
-0 -0 0 5 89197310 0 14 373 0
-0 -0 0 5 89293750 0 14 367 0
-0 -0 0 6 89391610 0 14 353 0
-0 -0 0 4 89490670 0 14 374 0
-0 -0 0 6 89587180 0 14 370 0
-0 -0 0 5 89686750 0 14 365 0
-6.0634189 -3.183538 3.23139 10 89782810 1 14 352 7560
-5.9935265 -3.1001515 3.184304 41 89883080 6 14 388 7449
-6.0374575 -3.0760453 3.197454 80 89978160 12 14 376 7480
-0 -0 0 4 90078060 0 14 369 0
-0 -0 0 5 90173860 0 14 324 0
-0 -0 0 4 90273630 0 14 330 0
-0 -0 0 4 90370120 0 14 379 0
-0 -0 0 6 90467150 0 14 404 0
-0 -0 0 4 90565900 0 14 396 0
-0 -0 0 4 90662110 0 14 385 0
-0 -0 0 5 90761400 0 14 338 0
-0 -0 0 6 90856440 0 14 359 0
-0 -0 0 7 90955980 0 14 388 0
-0 -0 0 4 91051090 0 14 309 0
-0 -0 0 3 91151300 0 14 314 0
-0 -0 0 3 91247360 0 14 350 0
-0 -0 0 4 91346100 0 14 389 0
-0 -0 0 5 91443700 0 14 350 0
-0 -0 0 7 91541360 0 14 360 0
-0 -0 0 5 91640540 0 14 339 0
-0 -0 0 5 91736490 0 14 358 0
-0 -0 0 5 91836370 0 14 390 0
-0 -0 0 5 91931480 0 14 347 0
-0 -0 0 6 92030970 0 14 352 0
-0 -0 0 4 92126310 0 14 377 0
-0 -0 0 5 92226220 0 14 367 0
-0 -0 0 4 92322610 0 14 378 0
-0 -0 0 4 92421230 0 14 349 0
-7.1917305 -2.3164968 3.5626898 6 92519300 1 14 372 8341
-7.1876693 -2.2666168 3.5537815 10 92616760 2 14 371 8320
-7.1097031 -2.1942191 3.5088165 29 92715520 5 14 403 8214
-7.1282353 -2.1521206 3.5113616 176 92811640 33 14 396 8220
-7.1082973 -2.0986183 3.4952421 209 92910770 40 14 429 8182
-7.0749187 -2.0416834 3.4727595 216 93005880 41 14 462 8129
-7.0097284 -1.9764102 3.4350057 276 93105450 50 14 452 8040
-6.9466262 -1.912734 3.3985245 253 93201040 45 14 410 7954
-6.9853468 -1.8773438 3.4116747 346 93300100 62 14 484 7985
-7.0107522 -1.8381132 3.418462 317 93396840 57 14 474 8001
-7.0613856 -1.80513 3.437551 345 93494450 62 14 448 8046
-7.1312118 -1.7763982 3.4659724 310 93592540 59 14 461 8113
-7.1675024 -1.7387843 3.4782741 299 93690130 57 14 471 8142
-7.2071247 -1.701622 3.4922726 309 93790050 59 14 472 8175
-7.4884248 -1.7194262 3.6225019 145 93885380 32 14 488 8482
-7.6411486 -1.7051183 3.690798 167 93985350 38 14 431 8643
-7.6505818 -1.6580096 3.6903739 170 94079990 39 14 423 8642
-7.6508622 -1.6089909 3.6857076 170 94179750 37 14 412 8631
-7.673902 -1.5647221 3.6920707 171 94275330 39 14 408 8646
-7.6815815 -1.5172565 3.6912222 131 94374730 30 14 375 8644
-7.6907463 -1.4700947 3.6912222 171 94470690 39 14 448 8644
-7.6907163 -1.4212369 3.6869802 146 94568400 32 14 392 8634
-7.6966171 -1.3735451 3.6857076 150 94666960 33 14 425 8631
-7.7075777 -1.3267529 3.6869802 161 94763760 35 14 392 8634
-7.7280817 -1.281502 3.692919 183 94863490 42 14 414 8648
-7.7411656 -1.2349122 3.6954641 161 94957660 37 14 443 8654
-7.7342739 -1.1852036 3.6886771 170 95058340 37 14 415 8638
-7.747673 -1.1386428 3.6916463 163 95153130 37 14 408 8645
-5.9546213 -0.83887488 2.8402781 197 95252730 24 14 576 6638
-5.9022126 -0.79463202 2.8131294 398 95348860 49 14 429 6574
-5.8773336 -0.75461835 2.7991309 372 95448400 46 14 526 6541
-5.8503895 -0.71472174 2.7842839 381 95545910 44 14 476 6506
-5.8321743 -0.67622054 2.7736788 358 95643320 42 14 488 6481
-5.8182092 -0.6384604 2.7651949 384 95742310 45 14 507 6461
-5.7328353 -0.59358406 2.7231991 481 95838250 64 14 481 6362
-5.7156377 -0.55639493 2.7134426 447 95937870 58 14 461 6339
-5.6918874 -0.51886874 2.7007165 478 96033030 59 14 502 6309
-5.6868424 -0.48325044 2.6968987 449 96133500 55 14 501 6300
-5.7059517 -0.44961536 2.7045343 564 96229430 75 14 484 6318
-5.6914415 -0.41336286 2.6964746 496 96329070 63 14 456 6299
-5.6622438 -0.3763558 2.6816275 438 96425760 53 14 528 6264
-5.6373277 -0.33999169 2.6689017 428 96524520 47 14 515 6234
-5.6194134 -0.30433366 2.6595693 509 96621840 65 14 551 6212
-5.5904198 -0.26839578 2.6451464 483 96718700 60 14 454 6178
-5.5521498 -0.23245369 2.6264818 535 96817590 66 14 519 6134
-5.517271 -0.19711781 2.6095138 512 96913400 62 14 491 6094
-5.4803586 -0.16216666 2.5916972 492 97013490 58 14 489 6052
-5.4468474 -0.12775792 2.5755777 478 97108110 56 14 482 6014
-5.4212708 -0.093901023 2.5632761 504 97207840 60 14 587 5985
-5.4135957 -0.0605505 2.5594583 491 97304080 58 14 528 5976
-5.3540978 -0.02707953 2.531461 597 97403600 73 14 506 5910
-5.3333354 0.0057333489 2.5217044 600 97501010 73 14 481 5887
-5.297884 0.038173851 2.5051606 548 97598720 64 14 485 5848
-5.2731018 0.070333622 2.4937072 562 97697530 66 14 518 5821
-5.2481256 0.10219073 2.4822538 606 97793830 74 14 499 5794
-5.2202425 0.13367215 2.469528 544 97893020 64 14 583 5764
-5.1957917 0.16493328 2.4584987 611 97989400 70 14 561 5738
-5.1684399 0.19579424 2.4461968 553 98089370 61 14 540 5709
-5.1300502 0.22583847 2.4288046 602 98185250 69 14 563 5668
-5.1032453 0.25601912 2.4169271 671 98285170 81 14 520 5640
-5.0807838 0.28613791 2.4071705 672 98380980 81 14 508 5617
-5.0572424 0.3159335 2.3969898 613 98479720 70 14 506 5593
-5.034431 0.34551382 2.3872333 647 98576480 76 14 508 5570
-5.0114474 0.37482613 2.3774767 584 98674770 61 14 527 5547
-4.9882946 0.40386948 2.3677201 595 98773060 62 14 580 5524
-4.9568558 0.43192813 2.3541455 644 98869480 70 14 551 5492
-4.9351792 0.46055073 2.3452375 639 98968370 70 14 518 5471
-4.9178438 0.48937604 2.3384502 627 99063820 68 14 544 5455
-4.8787298 0.51570183 2.3214822 739 99163510 87 14 575 5415
-4.8565769 0.54349524 2.3125741 756 99258860 90 14 558 5394
-4.8333678 0.57092929 2.3032417 762 99358160 85 14 539 5372
-4.8091068 0.59798652 2.2934852 727 99454060 79 14 542 5349
-4.7927775 0.62583029 2.2875464 731 99553800 80 14 590 5335
-4.7709055 0.65275472 2.2790623 709 99650510 76 14 582 5315
-4.7408171 0.67827266 2.2667606 669 99746800 70 14 615 5286
-4.7195516 0.7047919 2.2587008 674 99846260 70 14 610 5267
-4.6954551 0.73065555 2.2493684 755 99942530 84 14 552 5245
-5.5513196 -0.27015156 2.4430978 346 0 45 15 394 6059
-5.5244741 -0.2348699 2.4307265 371 97420 48 15 386 6028
-5.5029039 -0.2001292 2.4207499 368 193780 48 15 381 6003
-5.4774499 -0.16555038 2.4091768 366 291050 48 15 335 5974
-5.4426131 -0.13106848 2.3936131 361 387990 46 15 343 5935
-5.415812 -0.097170435 2.3816411 417 487640 53 15 379 5905
-5.3897171 -0.063617304 2.3700681 415 583710 52 15 360 5876
-5.3487453 -0.030301249 2.3521099 421 683850 53 15 376 5831
-5.3277416 0.0025140061 2.3429315 377 778690 48 15 361 5808
-5.3065372 0.035070363 2.3337529 360 878520 45 15 358 5785
-5.2833009 0.067343704 2.323776 347 974260 44 15 409 5760
-5.2589521 0.099316142 2.3134003 362 1072880 43 15 376 5734
-5.2417445 0.13117395 2.306217 350 1170470 42 15 382 5716
-5.1904345 0.16177627 2.2842684 432 1267160 56 15 348 5661
-5.1618552 0.19260266 2.2722962 404 1365140 48 15 353 5631
-5.1358423 0.22320317 2.2615213 363 1461130 43 15 408 5604
-5.1041546 0.25322062 2.2483521 412 1560700 49 15 380 5571
-5.0823636 0.28341654 2.2395725 429 1656690 48 15 417 5549
-5.0594797 0.3132982 2.2303939 401 1757620 44 15 404 5526
-5.0291023 0.34241343 2.2180228 408 1852490 45 15 417 5495
-4.9949021 0.37089714 2.2040553 458 1951580 57 15 351 5460
-4.9788222 0.40043938 2.1980693 436 2047570 53 15 380 5445
-4.9561744 0.42924622 2.1892898 442 2146100 54 15 364 5423
-4.9260564 0.45711446 2.1773176 465 2243640 58 15 383 5393
-4.8994341 0.48498967 2.1669419 459 2340280 53 15 371 5367
-4.8799515 0.51332086 2.1597588 467 2439540 55 15 400 5349
-4.8548388 0.5408237 2.1501811 417 2535280 43 15 380 5325
-4.8405008 0.56931996 2.1453922 434 2635290 49 15 397 5313
-4.8250861 0.59754831 2.1402042 448 2730260 52 15 382 5300
-4.7922316 0.62336653 2.127434 432 2829900 49 15 451 5268
-4.759243 0.64880425 2.1146638 503 2926030 61 15 409 5236
-4.7324777 0.67476493 2.1046872 507 3025380 61 15 374 5211
-4.7101092 0.7010954 2.0967057 533 3122220 66 15 363 5191
-4.6939392 0.72815901 2.0915179 535 3219500 61 15 403 5178
-4.6676569 0.75344616 2.0819402 519 3317560 58 15 405 5154
-4.647572 0.77949822 2.075156 512 3414280 57 15 386 5137
-4.6309576 0.80596012 2.0699682 530 3513340 60 15 358 5124
-4.6096821 0.83143502 2.0627849 534 3608510 61 15 386 5106
-4.5918741 0.85735142 2.0571978 526 3708670 60 15 423 5092
-4.5667195 0.88169223 2.0484183 519 3804910 58 15 408 5070
-4.5441375 0.90629405 2.0408361 455 3905250 49 15 438 5051
-4.5223246 0.93083662 2.0336528 490 4000230 54 15 458 5033
-4.5093517 0.95704675 2.0304604 499 4099920 56 15 472 5025
-4.4926448 0.98235035 2.0256715 493 4195890 54 15 408 5013
-4.4686408 1.0058763 2.0176902 512 4293450 57 15 399 4993
-4.4436245 1.0289383 2.0093095 557 4391970 60 15 406 4972
-4.4256306 1.0534278 2.0041218 489 4489710 50 15 401 4959
-4.4075036 1.0777353 1.9989338 500 4588490 52 15 399 4946
-4.369679 1.0969543 1.9849664 541 4683360 58 15 387 4911
-4.3548741 1.1216896 1.9813747 551 4783700 59 15 371 4902
-4.3310642 1.1439457 1.9737924 533 4878660 57 15 394 4883
-4.3036056 1.1649947 1.9646139 563 4978500 61 15 388 4860
-4.2910743 1.1899107 1.9622195 574 5075890 63 15 442 4854
-4.2783995 1.2147168 1.959825 531 5175380 56 15 434 4848
-4.2576571 1.2371122 1.9538389 527 5272110 56 15 405 4833
-4.235043 1.2587768 1.9470549 508 5369250 53 15 477 4816
-4.2184658 1.2820753 1.9430641 503 5467990 52 15 421 4806
-4.1930051 1.3025004 1.9350828 517 5564680 51 15 495 4786
-4.1840601 1.3279265 1.9346837 502 5663890 49 15 467 4785
-4.1514082 1.3456655 1.9235097 608 5758500 64 15 406 4757
-4.1430731 1.3711127 1.9235097 517 5857590 51 15 411 4757
-4.1267629 1.39387 1.9199182 542 5952730 54 15 432 4748
-4.103394 1.4140911 1.913134 594 6053920 62 15 417 4731
-4.0747418 1.4322553 1.9039553 623 6150490 66 15 419 4708
-4.0572448 1.4541396 1.8999647 657 6248970 72 15 391 4698
-4.0448003 1.4777495 1.8983684 639 6347130 69 15 406 4694
-4.0210471 1.4971058 1.8915842 616 6444530 65 15 423 4677
-4.0014963 1.5178512 1.8867954 692 6543670 78 15 424 4665
-3.9792767 1.5374227 1.8808093 655 6638570 72 15 404 4650
-3.964648 1.5597975 1.878415 664 6738520 73 15 398 4644
-3.9447873 1.580007 1.8736261 659 6832510 72 15 449 4632
-3.9197328 1.5979563 1.8664428 580 6933490 60 15 424 4614
-3.9039249 1.6195197 1.8636494 649 7028610 68 15 450 4607
-3.888 1.6409494 1.8608559 675 7126850 72 15 440 4600
-3.8753302 1.6636904 1.8596587 669 7223990 71 15 460 4597
-3.8625276 1.6863379 1.8584615 668 7322050 71 15 437 4594
-3.8454022 1.7070322 1.855269 640 7420980 67 15 464 4586
-3.8248253 1.7260723 1.8504801 653 7517250 69 15 463 4574
-3.8058267 1.7456883 1.8464894 646 7617970 68 15 503 4564
-3.7900567 1.7666848 1.844095 637 7712500 66 15 539 4558
-3.7733436 1.7871614 1.8413014 658 7812340 70 15 496 4551
-3.760654 1.809486 1.8405033 648 7907580 68 15 497 4549
-3.7437129 1.8297104 1.8377099 650 8007350 68 15 487 4542
-3.7200937 1.8465358 1.8317238 669 8103380 71 15 461 4527
-3.6980476 1.8639655 1.8265359 685 8201700 74 15 435 4514
-3.6832755 1.8849514 1.8249396 677 8298740 73 15 412 4510
-3.6757092 1.9096283 1.8269351 630 8396290 65 15 456 4515
-3.6541884 1.9270169 1.8221462 656 8493510 69 15 448 4503
-3.6325929 1.9442133 1.8173573 653 8590880 69 15 461 4491
-3.6141481 1.9629669 1.8141648 671 8689890 72 15 437 4483
-3.604445 1.9864329 1.815362 667 8784620 71 15 445 4486
-3.5929892 2.0089593 1.8157611 699 8885770 76 15 455 4487
-3.5750108 2.0278027 1.8129675 677 8980560 73 15 430 4480
-3.5601165 2.0483294 1.8117704 644 9081090 67 15 467 4477
-3.5419364 2.0669022 1.8089769 667 9177330 71 15 441 4470
-3.5205059 2.083462 1.8045871 632 9274990 65 15 359 4459
-3.5013647 2.1012518 1.8013946 668 9373090 71 15 402 4451
-3.4829216 2.1193616 1.7986012 661 9470000 70 15 418 4444
-3.4675102 2.1392488 1.7974039 690 9567640 75 15 425 4441
-3.4535413 2.1599989 1.7970048 731 9664800 82 15 417 4440
-3.4386737 2.1801674 1.7962067 721 9763760 80 15 432 4438
-3.419831 2.1977575 1.7934132 748 9858680 85 15 422 4431
-3.4001336 2.2146981 1.7902206 731 9958910 82 15 378 4423
-3.3887765 2.2370341 1.7914178 720 10054380 80 15 425 4426
-3.3749866 2.2577851 1.7914178 710 10154590 78 15 430 4426
-3.3587921 2.2769084 1.7902206 666 10250850 71 15 400 4423
-3.3455141 2.2979934 1.7906197 706 10349540 77 15 423 4424
-3.3245759 2.3137662 1.7870281 608 10446910 59 15 413 4415
-3.297574 2.3251436 1.7802439 627 10545090 63 15 440 4398
-3.2802601 2.3432024 1.7786477 634 10643260 64 15 444 4394
-3.2665637 2.3638229 1.7790467 691 10738470 72 15 440 4395
-3.2534773 2.3849053 1.7798449 660 10839330 68 15 436 4397
-3.2328918 2.4004524 1.7766523 673 10932830 69 15 465 4389
-3.2188351 2.4207947 1.7770513 694 11033420 73 15 443 4390
-3.203191 2.4399443 1.7766523 682 11128900 71 15 417 4389
-3.1845286 2.4567537 1.7746569 679 11228870 70 15 428 4384
-3.1672263 2.4745545 1.7734598 677 11325500 70 15 414 4381
-3.1527023 2.4945104 1.7738588 679 11422950 70 15 443 4382
-3.1366212 2.5132349 1.7734598 664 11519410 68 15 410 4381
-3.1211412 2.5324335 1.7734598 630 11617170 63 15 396 4381
-3.1041265 2.5503731 1.7726616 606 11715260 59 15 414 4379
-3.087009 2.5681994 1.7718635 523 11811340 48 15 421 4377
-3.0803118 2.594769 1.7770513 581 11911340 55 15 404 4390
-3.0678217 2.6165946 1.7790467 577 12006280 55 15 416 4395
-3.0454614 2.6299775 1.7754551 609 12106230 59 15 413 4386
-3.0271955 2.6468046 1.7742579 631 12202450 63 15 425 4383
-3.0136449 2.6677594 1.7758541 676 12299490 70 15 422 4387
-2.994487 2.6837537 1.7742579 601 12397460 58 15 472 4383
-2.9752464 2.6996133 1.7726616 622 12494540 62 15 459 4379
-2.9565995 2.7159581 1.7714643 591 12593450 57 15 453 4376
-2.9479389 2.7415388 1.7762532 646 12690690 65 15 396 4388
-2.9344006 2.762717 1.7782485 620 12789430 61 15 432 4393
-2.9160657 2.7794051 1.7774504 660 12885600 67 15 416 4391
-2.8956566 2.7940633 1.7754551 582 12984740 56 15 419 4386
-2.8817387 2.8149805 1.7774504 564 13079900 53 15 400 4391
-2.8657165 2.8338985 1.7782485 610 13179280 60 15 438 4393
-2.848274 2.851429 1.7782485 574 13275970 55 15 404 4393
-2.8294358 2.867547 1.7774504 565 13375470 53 15 380 4391
-2.8098669 2.882885 1.7762532 556 13473070 52 15 402 4388
-2.7997591 2.9079955 1.7810421 580 13570440 55 15 418 4400
-2.7869201 2.9304335 1.7842346 515 13668730 47 15 388 4408
-2.772655 2.9514871 1.7866291 520 13765540 47 15 363 4414
-2.7544928 2.9684441 1.7866291 515 13865550 47 15 424 4414
-2.733748 2.9825866 1.7850327 539 13960440 50 15 357 4410
-2.7184737 3.002702 1.7870281 556 14061260 52 15 391 4415
-2.7024441 3.022059 1.7886244 547 14156970 53 15 385 4419
-2.6887081 3.0440803 1.7918169 547 14256110 53 15 396 4427
-2.6729944 3.0639741 1.7938123 524 14352700 50 15 387 4432
-2.663125 3.0907342 1.7997983 554 14451710 54 15 379 4447
-2.6452997 3.1084127 1.8005965 517 14549400 49 15 367 4449
-2.6267672 3.1252873 1.8009955 518 14647110 49 15 391 4450
-2.6169152 3.1526313 1.8073807 511 14746930 48 15 365 4466
-2.5998478 3.1714647 1.8089769 493 14842040 45 15 426 4470
-2.5751448 3.1809452 1.8053852 541 14942100 52 15 384 4461
-2.5578694 3.1995502 1.8069816 544 15037770 52 15 382 4465
-2.5444415 3.2230992 1.8113713 561 15136860 55 15 375 4476
-2.5280008 3.2429888 1.8137658 570 15232750 56 15 379 4482
-2.5086141 3.2591655 1.8141648 559 15332140 54 15 388 4483
-2.4941194 3.2817953 1.8181555 617 15428800 63 15 414 4493
-2.4816437 3.3073025 1.8237425 602 15525840 61 15 409 4507
-2.4640338 3.3261502 1.8257378 597 15624430 60 15 444 4512
-2.4452033 3.3434265 1.8269351 582 15721370 58 15 444 4515
-2.4278641 3.3628263 1.8293294 586 15821060 58 15 480 4521
-2.4098465 3.3813927 1.8313248 573 15915810 56 15 431 4526
-2.3943315 3.4036133 1.8353155 580 16016450 57 15 459 4536
-2.3770645 3.4235117 1.8381089 564 16110390 55 15 466 4543
-2.3570507 3.4395452 1.8389071 545 16210780 53 15 488 4545
-2.3410406 3.4615364 1.8428978 572 16306540 56 15 490 4555
-2.3238311 3.4819357 1.8460903 568 16405660 56 15 481 4563
-2.30545 3.5007226 1.8484848 582 16502100 58 15 478 4569
-2.2869256 3.5194149 1.8508792 584 16599140 58 15 491 4575
-2.2702391 3.5410984 1.8548698 566 16697850 55 15 534 4585
-2.2523916 3.5611598 1.8580624 590 16794240 59 15 432 4593
-2.234869 3.581913 1.861654 622 16894500 64 15 496 4602
-2.2200613 3.6072695 1.86764 615 16989840 65 15 404 4617
-2.2002659 3.624742 1.8696355 581 17090230 60 15 437 4622
-2.1728001 3.6295221 1.8652457 595 17184640 62 15 473 4611
-2.1523542 3.6459436 1.8668419 600 17284700 63 15 423 4615
-2.1322503 3.663043 1.8688372 574 17381300 59 15 454 4620
-2.100601 3.6601551 1.8608559 292 17479740 23 15 369 4600
-2.0519001 3.6266971 1.8377099 262 17576700 21 15 362 4542
-1.9741967 3.5399375 1.7882253 336 17674740 27 15 310 4418
-1.9347608 3.5198491 1.7722626 288 17773470 22 15 356 4378
-1.8873434 3.4840956 1.7487174 274 17869770 21 15 343 4319
-1.8391423 3.4454682 1.7239752 268 17969160 21 15 344 4257
-1.7842269 3.3925889 1.6924487 310 18064610 23 15 350 4178
-1.7355181 3.3497498 1.6661102 328 18165110 24 15 368 4112
-1.6978308 3.3268566 1.6497483 316 18260220 24 15 402 4071
-1.6402985 3.2634921 1.6138321 362 18359150 27 15 375 3981
-1.6002979 3.2332361 1.5942777 320 18455650 24 15 357 3932
-1.5595253 3.2001412 1.5735261 322 18554130 24 15 384 3880
-1.5219983 3.1724551 1.555568 314 18651770 24 15 370 3835
-1.4797763 3.1336539 1.5324219 357 18748940 27 15 378 3777
-1.4330608 3.083648 1.504088 372 18847730 28 15 338 3706
-1.3996102 3.0607016 1.4889234 377 18943440 29 15 357 3668
-1.366119 3.0366261 1.4733597 330 19043420 25 15 399 3629
-1.3333482 3.0130944 1.4581951 361 19137490 28 15 381 3591
-1.295058 2.9758265 1.4366454 414 19237900 32 15 376 3537
-1.255832 2.9348326 1.4134994 423 19333170 33 15 337 3479
-1.2228528 2.9069915 1.3967384 351 19432700 28 15 377 3437
-1.1913153 2.8813992 1.3811748 407 19530370 33 15 393 3398
-1.1594474 2.853832 1.364813 365 19627050 29 15 425 3357
-1.1320466 2.8362007 1.3532399 425 19725850 34 15 405 3328
-1.1045711 2.817488 1.3412678 419 19822560 34 15 390 3298
-1.0684634 2.7754459 1.3185209 425 19921620 35 15 345 3241
-1.0384314 2.7476473 1.3025582 429 20016610 36 15 372 3201
-1.0148476 2.7359171 1.2941777 448 20116420 42 15 383 3180
-0.97920102 2.6904037 1.2702335 360 20210520 30 15 400 3120
-0.95557415 2.6765034 1.261055 411 20311100 34 15 408 3097
-0.92790729 2.6503015 1.2462894 435 20407090 42 15 381 3060
-0.90387744 2.6334002 1.2359136 450 20506060 44 15 354 3034
-0.87686974 2.6067464 1.221148 415 20603270 37 15 372 2997
-0.85338533 2.5894396 1.2107723 468 20701250 47 15 388 2971
-0.82817197 2.5658362 1.197603 442 20799890 43 15 364 2938
-0.80521786 2.548141 1.1872271 435 20897440 42 15 413 2912
-0.78278375 2.5311377 1.1772504 431 20996380 42 15 400 2887
-0.7597909 2.5113232 1.1660765 432 21091790 48 15 411 2859
-0.73654979 2.4895644 1.1541044 459 21191000 52 15 389 2829
-0.71513569 2.4729004 1.1445267 428 21285860 43 15 394 2805
-0.69145632 2.4472456 1.1309584 467 21385180 53 15 346 2771
-0.67080694 2.4311156 1.1217798 471 21481540 54 15 386 2748
-0.65157646 2.4192514 1.1145966 445 21580160 50 15 358 2730
-0.63064897 2.4001501 1.1042207 487 21677040 56 15 355 2704
-0.60884041 2.3764431 1.0918496 417 21775280 48 15 382 2673
-0.58845979 2.3570073 1.0814738 411 21873940 48 15 402 2647
-0.56920934 2.3409753 1.0726943 382 21968810 44 15 435 2625
-0.54911965 2.3203356 1.0619195 370 22068190 43 15 362 2598
-0.53239775 2.3129399 1.0571306 408 22163260 47 15 370 2586
-0.51378036 2.2964802 1.048351 411 22263100 48 15 350 2564
-0.49694678 2.2870467 1.0427641 411 22359810 48 15 338 2550
-0.47721311 2.2631404 1.030792 362 22458100 42 15 346 2520
-0.46165994 2.257942 1.0272005 369 22554470 43 15 347 2511
-0.44386569 2.2409465 1.0184209 363 22652650 50 15 349 2489
-0.42525852 2.2184162 1.007247 336 22750470 46 15 378 2461
-0.40560368 2.1885309 0.99288046 289 22848850 40 15 360 2425
-0.39006013 2.1792462 0.98769259 281 22947440 39 15 352 2412
-0.37511557 2.172564 0.98370188 271 23042290 37 15 350 2402
-0.3596637 2.1621633 0.9781149 271 23141690 37 15 347 2388
-0.34493551 2.1552763 0.97412419 236 23235740 32 15 341 2378
-0.31659472 2.0594842 0.93102473 58 23335830 10 15 279 2270
-0.29293594 1.987012 0.89830106 9 23432730 1 15 264 2188
-0.27880675 1.9751545 0.89231503 19 23531280 3 15 270 2173
-0.26606616 1.972285 0.89031971 21 23628410 3 15 277 2168
-0.25337133 1.9693336 0.88832432 12 23727380 2 15 254 2163
-0.24061069 1.965391 0.88592994 17 23825270 3 15 274 2157
-0.22716281 1.954991 0.88074201 18 23922200 3 15 265 2144
-0.2146586 1.9517913 0.87874669 30 24020570 5 15 277 2139
-0.20296441 1.9558074 0.87994391 42 24117250 7 15 291 2142
-0.19069096 1.9542785 0.87874669 44 24217370 7 15 275 2139
-0.17751911 1.942629 0.87315971 35 24312060 6 15 297 2125
-0.16575296 1.9455087 0.87395787 37 24413570 6 15 315 2127
-0.15352097 1.9428331 0.8723616 29 24508960 5 15 279 2123
-0.14166434 1.9446529 0.87276065 36 24607600 6 15 288 2124
-0.12935965 1.9399965 0.87036622 43 24705820 7 15 283 2118
-0.11818197 1.9526514 0.87555414 134 24802830 23 15 290 2131
-0.1046358 1.9249582 0.86318296 196 24901190 46 15 330 2100
-0.092508964 1.9191532 0.86038953 194 24998600 45 15 348 2093
-0.080378979 1.91144 0.85679787 210 25097190 49 15 323 2084
-0.068481341 1.9073156 0.85480255 211 25193050 49 15 288 2079
-0.056581501 1.9012845 0.85200906 212 25294370 49 15 331 2072
-0.044512931 1.8850962 0.8448258 196 25388980 46 15 322 2054
-0.032795262 1.8770828 0.84123421 208 25488550 48 15 308 2045
-0.021155508 1.8671634 0.83684444 219 25585090 51 15 295 2034
-0.0096007418 1.8507538 0.82966119 190 25683450 44 15 303 2016
0.0017524497 1.837024 0.82367516 167 25781590 39 15 292 2001
0.012971749 1.8287265 0.8200835 182 25878230 42 15 310 1992
0.024077838 1.8194441 0.81609285 197 25977360 46 15 304 1982
0.035155896 1.8146782 0.81409746 216 26073760 50 15 303 1977
0.04597206 1.8015954 0.80851054 196 26172600 46 15 325 1963
0.056997247 1.8003629 0.80811143 225 26267780 52 15 306 1962
0.067601658 1.7880675 0.80292356 217 26367100 51 15 315 1949
0.077859484 1.7711298 0.79574031 169 26463080 39 15 310 1931
0.088047601 1.7568817 0.78975427 147 26562370 42 15 298 1916
0.098419495 1.7489842 0.78656173 157 26658480 45 15 327 1908
0.10903636 1.7465171 0.78576356 165 26756830 47 15 327 1906
0.11894421 1.7339225 0.78057569 133 26853120 38 15 307 1893
0.12897225 1.7249303 0.77698404 141 26950580 40 15 314 1884
0.13911422 1.7186224 0.77458966 141 27049420 40 15 297 1878
0.14926252 1.713169 0.77259427 147 27145660 42 15 297 1873
0.15951811 1.7094817 0.77139705 159 27245420 45 15 315 1870
0.16910355 1.6993459 0.7674064 166 27339630 47 15 301 1860
0.17866632 1.6900691 0.76381475 173 27439320 49 15 318 1851
0.18812166 1.6807392 0.76022315 161 27535260 46 15 311 1842
0.19725555 1.6695359 0.75583339 143 27633090 41 15 302 1831
0.2065964 1.6610141 0.75264084 163 27730610 46 15 286 1823
0.21584013 1.6524408 0.7494483 161 27827520 46 15 293 1815
0.22486287 1.6429083 0.74585664 165 27925740 47 15 282 1806
0.23403515 1.6351433 0.74306315 160 28021430 45 15 292 1799
0.24312063 1.6273277 0.74026966 182 28120420 52 15 310 1792
0.25183845 1.6176503 0.73667806 170 28215950 48 15 313 1783
0.2604467 1.6079273 0.73308647 153 28316620 43 15 284 1774
0.2695508 1.6017773 0.73109108 169 28411210 48 15 280 1769
0.2781184 1.5928661 0.72789854 152 28512500 43 15 297 1761
0.28674933 1.5848128 0.72510505 171 28608100 48 15 285 1754
0.29545999 1.5776151 0.72271067 133 28705950 38 15 296 1748
0.30409315 1.5703704 0.72031623 162 28803310 46 15 298 1742
0.3122904 1.5612808 0.71712369 149 28901000 42 15 298 1734
0.32131058 1.5566409 0.71592647 155 28999640 44 15 305 1731
0.32933509 1.547464 0.71273392 145 29096530 44 15 312 1723
0.33804157 1.5418309 0.71113765 153 29195120 47 15 295 1719
0.34628913 1.5343602 0.70874321 143 29291700 44 15 306 1713
0.35487095 1.528633 0.70714694 159 29391220 48 15 293 1709
0.36275938 1.5201824 0.70435345 134 29487350 41 15 299 1702
0.37142766 1.5152557 0.70315623 155 29587350 47 15 272 1699
0.37982613 1.5093906 0.70155996 152 29682060 46 15 291 1695
0.38793823 1.5025915 0.69956464 133 29781050 41 15 283 1690
0.39621511 1.4966365 0.69796836 148 29877680 45 15 333 1686
0.40467289 1.4915218 0.69677114 144 29976250 44 15 301 1683
0.41259333 1.4845924 0.69477582 156 30075890 48 15 289 1678
0.41994372 1.475858 0.69198233 142 30170980 43 15 315 1671
0.42771363 1.4688505 0.689987 121 30271080 37 15 307 1666
0.4356744 1.4626825 0.68839067 145 30366030 44 15 296 1662
0.44304287 1.4547174 0.68599629 172 30464760 52 15 294 1656
0.44978663 1.4449657 0.68280375 163 30560650 50 15 278 1648
0.45781296 1.4395566 0.68160653 166 30660260 51 15 326 1645
0.46522498 1.4323587 0.67961121 153 30756830 47 15 312 1640
0.47256598 1.4251243 0.67761582 141 30855470 43 15 274 1635
0.48071519 1.4204602 0.67681772 157 30953310 48 15 293 1633
0.48763105 1.412282 0.67442328 167 31050490 51 15 281 1627
0.49537614 1.4066679 0.67322606 140 31149440 43 15 318 1624
0.5027616 1.4001489 0.67162979 155 31245500 47 15 300 1620
0.51008576 1.3935924 0.67003351 158 31345090 48 15 315 1616
0.51766813 1.387858 0.6688363 165 31438770 50 15 297 1613
0.52552426 1.3829408 0.66803819 149 31539610 45 15 305 1611
0.5326792 1.3762685 0.66644192 166 31635930 51 15 299 1607
0.53977209 1.3695607 0.66484565 155 31733270 47 15 304 1603
0.54680276 1.3628178 0.66324931 145 31831680 44 15 312 1599
0.55377108 1.3560402 0.66165304 142 31929970 43 15 266 1595
0.55997473 1.3475345 0.65925866 169 32028780 52 15 309 1589
0.56645113 1.3398489 0.65726328 164 32124520 50 15 289 1584
0.5732159 1.3329773 0.65566701 157 32223910 48 15 292 1580
0.58065087 1.3277541 0.6548689 156 32319540 48 15 285 1578
0.58729988 1.3208135 0.65327263 173 32419810 53 15 312 1574
0.59463936 1.3155134 0.65247446 176 32514870 54 15 307 1572
0.60193598 1.3101728 0.65167636 157 32614270 48 15 286 1570
0.60880238 1.3039612 0.65047914 163 32709750 50 15 300 1567
0.61600745 1.2985435 0.64968097 189 32808960 58 15 287 1565
0.62316895 1.2930865 0.64888287 166 32905500 51 15 300 1563
0.62988436 1.2867668 0.64768565 152 33002440 46 15 269 1560
0.63654578 1.2804133 0.64648843 155 33100700 47 15 321 1557
0.64356536 1.2748456 0.64569032 153 33196950 47 15 296 1555
0.65012324 1.2684236 0.6444931 164 33296440 50 15 283 1552
0.65704894 1.2627831 0.64369494 160 33392590 49 15 283 1550
0.66264766 1.2546717 0.64169961 178 33491630 54 15 261 1545
0.66860408 1.247348 0.64010334 187 33587570 57 15 272 1541
0.67449564 1.2399983 0.63850707 179 33687670 55 15 283 1537
0.68032223 1.2326237 0.6369108 162 33784530 53 15 284 1533
0.68563658 1.2244238 0.63491541 164 33883210 54 15 285 1528
0.69268447 1.219396 0.63451636 163 33980660 54 15 289 1527
0.69969648 1.2143279 0.63411731 182 34077120 60 15 329 1526
0.70621055 1.2084277 0.63331914 183 34174630 60 15 289 1524
0.71361202 1.2040716 0.63331914 175 34271920 58 15 315 1524
0.72004348 1.1980976 0.63252103 196 34372360 65 15 298 1522
0.72738135 1.1936569 0.63252103 209 34467400 69 15 298 1522
0.73421061 1.1883909 0.63212192 209 34568080 69 15 268 1521
0.74003071 1.1815308 0.63092476 171 34662350 56 15 293 1518
0.74628508 1.1754187 0.6301266 166 34761660 55 15 287 1516
0.75397873 1.171589 0.63052565 180 34858670 59 15 313 1517
0.76315403 1.1700145 0.63212192 209 34956520 69 15 292 1521
0.76880407 1.1630137 0.63092476 186 35054530 61 15 295 1518
0.7759257 1.1582745 0.63092476 172 35151590 57 15 307 1518
0.7855894 1.1572874 0.63292009 209 35250430 69 15 306 1523
0.78904331 1.1471535 0.6301266 157 35347590 52 15 301 1516
0.79502022 1.1407849 0.62932849 158 35446580 52 15 291 1514
0.80094868 1.1343862 0.62853032 172 35541440 57 15 339 1512
0.80629593 1.1272115 0.6273331 164 35641730 54 15 297 1509
0.81265986 1.1214999 0.62693405 192 35737580 63 15 323 1508
0.81898415 1.1157527 0.626535 183 35837530 60 15 313 1507
0.82581484 1.1107064 0.626535 187 35933850 62 15 328 1507
0.83371621 1.1070844 0.6273331 159 36032190 52 15 304 1509
0.84215957 1.1041368 0.62853032 171 36131070 56 15 318 1512
0.84947842 1.0996748 0.62892938 185 36227770 61 15 262 1513
0.8556456 1.0937191 0.62853032 184 36327860 61 15 293 1512
0.86006564 1.0855713 0.62693405 175 36423240 58 15 298 1508
0.86556417 1.0788422 0.62613589 162 36522560 53 15 308 1506
0.87159002 1.0727986 0.62573683 180 36617120 59 15 291 1505
0.87641066 1.0653044 0.62453961 170 36717130 56 15 276 1502
0.88175839 1.0584967 0.62374151 194 36813570 64 15 319 1500
0.88823664 1.0530664 0.62374151 187 36912940 62 15 279 1500
0.8934918 1.0462008 0.62294334 180 37009200 59 15 264 1498
0.90109247 1.0420871 0.62374151 177 37107170 58 15 320 1500
0.90746963 1.0365385 0.62374151 184 37204700 61 15 295 1500
0.91381264 1.0309508 0.62374151 195 37301620 64 15 314 1500
0.92012125 1.0253243 0.62374151 189 37401730 62 15 293 1500
0.92824292 1.021697 0.62493873 178 37497540 59 15 313 1503
0.93511456 1.0166577 0.62533778 172 37598910 57 15 319 1504
0.94258344 1.0122441 0.62613589 182 37693540 60 15 310 1506
0.95066166 1.0084449 0.6273331 190 37793680 63 15 307 1509
0.95683146 1.0025928 0.6273331 201 37889690 66 15 295 1509
0.96232879 0.99604285 0.62693405 192 37987930 63 15 285 1508
0.96970326 0.99143159 0.62773216 176 38085570 58 15 306 1510
0.97705734 0.98676735 0.62853032 194 38182620 64 15 320 1512
0.98244512 0.9801054 0.62813127 178 38280900 59 15 274 1511
0.98909295 0.97470301 0.62853032 174 38376820 57 15 311 1512
0.99505496 0.96861571 0.62853032 179 38476130 59 15 320 1512
1.0036209 0.96503663 0.6301266 161 38571020 53 15 270 1516
1.0081949 0.95759612 0.62932849 177 38671430 58 15 298 1514
1.0167239 0.95390403 0.63092476 196 38766750 65 15 301 1518
1.0239017 0.94889539 0.63172287 190 38867110 63 15 310 1520
1.029029 0.94197524 0.63132381 180 38963290 59 15 326 1519
1.0354689 0.93625909 0.63172287 191 39061140 63 15 320 1520
1.0425608 0.93111086 0.63252103 190 39158800 63 15 327 1522
1.0503155 0.92651796 0.63371825 171 39255510 56 15 296 1525
1.0587437 0.92246795 0.63531452 187 39354580 62 15 308 1529
1.0636895 0.9153555 0.63491541 164 39450040 54 15 279 1528
1.0727764 0.91178399 0.6369108 176 39550400 58 15 281 1533
1.080456 0.906955 0.63810796 177 39644520 54 15 303 1536
1.0860007 0.90030837 0.63810796 147 39744730 45 15 313 1536
1.0936311 0.89537245 0.63930517 178 39840600 54 15 274 1539
1.1019543 0.8909539 0.64090145 173 39938780 53 15 275 1543
1.1095484 0.885894 0.64209867 169 40035740 52 15 303 1546
1.1171218 0.88077444 0.64329588 167 40134190 51 15 307 1549
1.1239511 0.87503123 0.64409405 155 40232670 47 15 279 1551
1.1322047 0.87035638 0.64569032 151 40328960 46 15 310 1555
1.1404431 0.8656131 0.64728659 174 40428200 53 15 305 1559
1.1442665 0.85749805 0.64648843 188 40522990 57 15 297 1557
1.1517162 0.852099 0.64768565 184 40623180 56 15 281 1560
1.156183 0.84447461 0.64728659 172 40717340 52 15 308 1559
1.1620861 0.83790147 0.64768565 174 40817500 53 15 309 1560
1.169445 0.83235252 0.64888287 158 40913610 48 15 311 1563
1.17528 0.82568908 0.64928192 169 41012930 52 15 305 1564
1.1810772 0.81898534 0.64968097 157 41110640 48 15 283 1565
1.1875926 0.81276011 0.65047914 160 41207940 49 15 304 1567
1.1940759 0.80648571 0.65127724 172 41306140 52 15 295 1569
1.200527 0.80016232 0.65207541 169 41402740 52 15 315 1571
1.2054141 0.79278094 0.65207541 140 41501330 43 15 310 1571
1.2156367 0.78886867 0.6548689 197 41598160 60 15 316 1578
1.2204542 0.78139484 0.6548689 189 41697780 58 15 273 1578
1.22755 0.77536273 0.65606612 148 41793440 45 15 325 1581
1.2346178 0.76927286 0.65726328 167 41893210 51 15 326 1584
1.2416569 0.76312542 0.6584605 180 41989520 55 15 273 1587
1.2494507 0.75739652 0.66005677 176 42088210 54 15 314 1591
1.2572207 0.75160068 0.66165304 156 42185150 48 15 310 1595
1.2649666 0.74573791 0.66324931 182 42282160 56 15 306 1599
1.2742723 0.74073136 0.66564375 147 42381050 45 15 313 1605
1.2835641 0.73563862 0.66803819 172 42476290 52 15 322 1611
1.2928411 0.73045957 0.67043257 153 42576750 47 15 275 1617
1.3013021 0.72474748 0.67242795 147 42671830 45 15 317 1622
1.3105448 0.71940088 0.67482233 163 42771400 50 15 315 1628
1.3189647 0.71353108 0.67681772 145 42867660 44 15 305 1633
1.326553 0.70715284 0.67841399 141 42966420 43 15 325 1637
1.3341125 0.70070827 0.68001026 141 43062210 43 15 292 1641
1.3408289 0.69377542 0.68120748 162 43159360 49 15 309 1644
1.3483268 0.68720359 0.68280375 155 43256250 47 15 331 1648
1.3541563 0.67974162 0.68360186 155 43353880 47 15 301 1650
1.3607664 0.67264104 0.68479908 171 43452700 52 15 354 1653
1.3698126 0.66669083 0.68719351 152 43548880 46 15 293 1659
1.3780104 0.66025794 0.68918884 162 43648850 49 15 277 1664
1.3853515 0.65335763 0.69078511 144 43743340 44 15 292 1668
1.3943226 0.64716554 0.69317955 140 43843830 43 15 353 1674
1.4041033 0.64126951 0.69597304 152 43940120 46 15 316 1681
1.4121919 0.63452464 0.69796836 174 44039850 53 15 305 1686
1.4185736 0.62696183 0.69916558 134 44136470 41 15 296 1689
1.4274375 0.62044328 0.70155996 163 44233980 50 15 302 1695
1.4354318 0.61347836 0.70355535 158 44331720 48 15 323 1700
1.4425491 0.60608274 0.70515162 170 44427400 52 15 333 1704
1.4479352 0.59792143 0.70594972 158 44526590 48 15 303 1706
1.4558234 0.59075332 0.70794511 150 44621290 46 15 307 1711
1.463678 0.58351088 0.70994043 194 44721700 59 15 284 1716
1.4697914 0.57552409 0.71113765 148 44816410 45 15 304 1719
1.4750062 0.56715441 0.71193576 140 44916080 43 15 319 1721
1.4861765 0.56101424 0.71552742 172 45011980 49 15 287 1730
1.4930289 0.5531618 0.71712369 142 45111980 40 15 299 1734
1.5041482 0.54681635 0.72071528 153 45208440 43 15 331 1743
1.5143822 0.54004651 0.72390783 164 45305710 47 15 327 1751
1.5237243 0.53286815 0.72670132 154 45403420 44 15 316 1758
1.5321679 0.52529728 0.72909576 156 45500110 44 15 284 1764
1.5457892 0.5193994 0.73388457 173 45599840 49 15 314 1776
1.5506886 0.51047969 0.73468274 191 45695300 54 15 300 1778
1.5607712 0.50321192 0.73787528 170 45795340 48 15 290 1786
1.5743195 0.49694642 0.7426641 133 45891260 38 15 305 1798
1.5825942 0.48890534 0.74505854 143 45991200 41 15 296 1804
1.5890743 0.48024943 0.74665481 141 46086560 40 15 288 1808
1.6007822 0.47309589 0.75064546 154 46184730 44 15 326 1818
1.6071777 0.46428552 0.75224179 171 46282060 48 15 297 1822
1.6170542 0.45641357 0.75543433 169 46379760 48 15 308 1830
1.6251268 0.44794908 0.75782871 153 46478740 43 15 270 1836
1.6358119 0.44011948 0.76142037 167 46575400 47 15 294 1845
1.649122 0.43287602 0.76620919 167 46674740 47 15 295 1857
1.6615162 0.42525762 0.77059895 170 46769830 48 15 314 1868
1.6720997 0.41705814 0.77419055 149 46869570 42 15 332 1877
1.6826448 0.40874472 0.7777822 153 46965090 43 15 334 1886
1.6922584 0.40010586 0.78097475 167 47064070 47 15 305 1894
1.7009356 0.39115813 0.78376824 155 47160830 44 15 286 1901
1.7122505 0.38272107 0.78775895 181 47259580 51 15 311 1911
1.7217338 0.37376937 0.79095149 182 47358140 52 15 347 1919
1.7293773 0.36433622 0.79334587 194 47455270 45 15 319 1925
1.7405626 0.35556012 0.79733658 232 47554140 54 15 321 1935
1.7472081 0.34576696 0.7993319 184 47649830 43 15 336 1940
1.7574006 0.33659828 0.80292356 204 47749970 47 15 331 1949
1.7657431 0.3269822 0.80571705 209 47845610 49 15 325 1956
1.776741 0.31776264 0.8097077 244 47946570 57 15 311 1966
1.7831746 0.3076376 0.81170309 189 48042360 44 15 301 1971
1.7922639 0.29789859 0.81489563 202 48141170 47 15 307 1979
1.8031111 0.28835046 0.81888634 217 48237210 51 15 313 1989
1.8130021 0.27854052 0.82247794 207 48335230 48 15 305 1998
1.8219333 0.26848564 0.82567048 203 48432320 47 15 310 2006
1.8380717 0.2593618 0.83205557 245 48529150 57 15 341 2022
1.8578006 0.25054276 0.84003699 238 48628360 55 15 315 2042
1.8738525 0.24102077 0.84642208 253 48724330 59 15 324 2058
1.890767 0.23142321 0.85320628 287 48825570 67 15 309 2075
1.9049014 0.22130771 0.85879326 254 48920450 59 15 340 2089
1.9171597 0.2108257 0.86358207 247 49020170 58 15 339 2101
1.9275368 0.20001097 0.86757272 257 49115530 60 15 338 2111
1.9369406 0.18898714 0.87116438 244 49213700 42 15 322 2120
1.9490204 0.17810762 0.8759532 251 49310640 43 15 376 2132
1.9610392 0.16708694 0.88074201 228 49408430 39 15 349 2144
1.9711677 0.15577972 0.88473272 260 49506990 45 15 334 2154
1.9830599 0.14448898 0.88952154 277 49604000 48 15 355 2166
1.9976318 0.13324304 0.89550757 293 49703270 51 15 339 2181
2.0103095 0.12171165 0.9006955 324 49799060 56 15 344 2194
2.027498 0.11028171 0.90787876 335 49899010 58 15 330 2212
2.0372949 0.098287053 0.91186941 345 49993600 60 15 365 2222
2.0525169 0.086411335 0.91825455 400 50093620 69 15 342 2238
2.0640042 0.074218288 0.92304337 373 50189230 65 15 328 2250
2.0763352 0.061915446 0.92823124 368 50288040 64 15 366 2263
2.089509 0.049486361 0.93381822 388 50385360 67 15 357 2277
2.0980241 0.036814541 0.93740988 448 50482550 86 15 354 2286
2.1027949 0.023995874 0.9394052 425 50581060 74 15 327 2291
2.1148224 0.011163454 0.94459307 688 50676150 104 15 397 2304
2.103848 -0.0018106616 0.93980426 437 50776320 83 15 350 2292
2.0854592 -0.014603073 0.9318229 348 50871880 60 15 370 2272
2.0844135 -0.027387483 0.93142384 378 50971940 66 15 381 2271
2.073205 -0.039971758 0.92663497 357 51068180 62 15 344 2259
2.0683377 -0.052578442 0.92463964 359 51167170 62 15 308 2254
2.0487299 -0.064673677 0.91625917 280 51263680 48 15 307 2233
2.0492108 -0.077277184 0.91665828 316 51362090 55 15 372 2234
2.0386212 -0.089414172 0.91226852 300 51459940 52 15 325 2223
2.0316236 -0.10160489 0.90947503 309 51557540 54 15 361 2216
2.0318775 -0.1141196 0.90987408 363 51656340 63 15 366 2217
2.0174112 -0.12573843 0.90388805 303 51752450 52 15 327 2202
2.0101981 -0.13768038 0.90109456 312 51852940 54 15 359 2195
2.0038288 -0.14960621 0.89870012 319 51946950 55 15 352 2189
1.9845934 -0.16043343 0.89071876 276 52047560 48 15 329 2169
1.9671283 -0.17118801 0.8835355 247 52142780 43 15 389 2151
1.9596497 -0.18266355 0.88074201 248 52240840 43 15 371 2144
1.954842 -0.194324 0.87914574 270 52338280 47 15 347 2140
1.9444937 -0.20535833 0.87515509 261 52435290 45 15 339 2130
1.9349953 -0.21637428 0.87156343 250 52533060 43 15 351 2121
1.922703 -0.22696087 0.86677462 237 52629800 55 15 346 2109
1.9103543 -0.23740481 0.8619858 239 52729790 56 15 339 2097
1.8970408 -0.24758777 0.85679787 227 52826480 53 15 342 2084
1.8954859 -0.25922313 0.85679787 239 52926390 56 15 316 2084
1.8729808 -0.26787782 0.8476193 214 53020180 50 15 351 2061
1.8658601 -0.27855673 0.84522486 211 53121060 49 15 320 2055
1.8559606 -0.28873751 0.84163326 218 53217060 51 15 294 2046
1.8469121 -0.29895315 0.83844072 201 53316360 47 15 321 2038
1.8323823 -0.30816025 0.83285373 225 53413180 52 15 309 2024
1.8250366 -0.31845599 0.8304593 211 53510820 49 15 304 2018
1.8212435 -0.3293232 0.82966119 224 53609750 52 15 303 2016
1.8128787 -0.33931574 0.8268677 221 53705890 51 15 307 2009
1.8071612 -0.34973875 0.82527143 228 53805160 53 15 320 2005
1.8067797 -0.36117885 0.82606953 231 53899530 54 15 298 2007
1.7919556 -0.36967394 0.82048261 205 53999230 48 15 318 1993
1.7869625 -0.38009191 0.81928539 239 54094630 56 15 333 1990
1.7765344 -0.38928896 0.81569374 202 54194810 47 15 305 1981
1.7705339 -0.39937785 0.81409746 214 54291760 50 15 322 1977
1.7564366 -0.40754861 0.8089096 227 54390720 53 15 325 1964
1.7485504 -0.41704589 0.80651516 205 54488550 48 15 304 1958
1.7397233 -0.42624426 0.80372167 224 54586320 52 15 347 1951
1.7308495 -0.43535006 0.80092818 199 54683350 46 15 339 1944
1.7245936 -0.44504839 0.7993319 209 54778740 49 15 307 1940
1.7156242 -0.45398474 0.79653841 179 54878460 42 15 289 1933
1.7119212 -0.46426374 0.79613936 211 54974080 49 15 337 1932
1.7063893 -0.47402489 0.79494214 183 55074780 43 15 318 1929
1.6999202 -0.48348552 0.79334587 208 55170720 48 15 321 1925
1.6925186 -0.49262908 0.79135054 178 55269340 41 15 324 1920
1.687706 -0.50248295 0.79055238 205 55366210 58 15 322 1918
1.6837137 -0.51256269 0.79015332 233 55463810 66 15 334 1917
1.6752826 -0.52125371 0.78775895 213 55561150 60 15 321 1911
1.6703047 -0.53096902 0.78696078 169 55658460 48 15 317 1909
1.6609089 -0.53923059 0.78416729 188 55755810 53 15 331 1902
1.6532161 -0.5479725 0.78217196 197 55852250 56 15 326 1897
1.6454787 -0.55664039 0.78017658 186 55952590 53 15 339 1892
1.6376973 -0.56523401 0.77818125 207 56047990 59 15 306 1887
1.6307378 -0.57405698 0.77658498 213 56148660 60 15 354 1883
1.6228684 -0.58250672 0.77458966 217 56244470 62 15 367 1878
1.6158184 -0.591196 0.77299339 195 56344620 55 15 340 1874
1.6087228 -0.59982067 0.77139705 190 56441820 54 15 346 1870
1.6015824 -0.60838062 0.76980078 190 56539590 54 15 350 1866
1.5926869 -0.61621517 0.7674064 200 56636510 57 15 299 1860
1.584609 -0.62429905 0.76541102 207 56732540 59 15 325 1855
1.5756408 -0.63196629 0.76301664 210 56832380 60 15 297 1849
1.5683367 -0.64023888 0.76142037 173 56927920 49 15 306 1845
1.5584495 -0.64739245 0.75862688 171 57027180 48 15 317 1838
1.5502234 -0.65516138 0.75663155 201 57123600 57 15 329 1833
1.5444889 -0.66393816 0.75583339 194 57224090 55 15 281 1831
1.5370241 -0.67193604 0.75423712 189 57321420 54 15 278 1827
1.5295197 -0.67986739 0.75264084 185 57419940 52 15 282 1823
1.5244833 -0.68886262 0.75224179 178 57516730 51 15 353 1822
1.5177273 -0.69705766 0.75104457 172 57614770 49 15 319 1819
1.5076033 -0.70364732 0.74825108 204 57712150 58 15 282 1812
1.5024285 -0.71249235 0.74785203 191 57809060 54 15 335 1811
1.4922439 -0.71891659 0.74505854 173 57908650 49 15 295 1804
1.4869807 -0.7276569 0.74465942 180 58003450 51 15 317 1803
1.4800235 -0.73554498 0.74346226 174 58103990 49 15 311 1800
1.4738445 -0.74378747 0.7426641 161 58199370 46 15 270 1798
1.4635384 -0.74989468 0.73987061 201 58299890 57 15 317 1791
1.4589095 -0.75886065 0.73987061 187 58395420 53 15 281 1791
1.4517922 -0.76651573 0.73867339 179 58493930 51 15 284 1788
1.4454446 -0.77454454 0.73787528 209 58592220 59 15 316 1786
1.4398589 -0.78296167 0.73747623 200 58689040 57 15 303 1785
1.4350276 -0.79178172 0.73747623 211 58787910 60 15 284 1785
1.4277409 -0.79923034 0.73627901 203 58883660 58 15 310 1782
1.420417 -0.80661935 0.73508179 228 58983910 65 15 320 1779
1.4130563 -0.81394869 0.73388457 189 59079600 54 15 323 1776
1.4064511 -0.82167995 0.73308647 175 59179130 50 15 295 1774
1.3998045 -0.82936084 0.7322883 179 59274320 51 15 314 1772
1.3939029 -0.83746272 0.73188925 186 59373630 53 15 275 1771
1.3871711 -0.845047 0.73109108 176 59469180 50 15 321 1769
1.3827404 -0.85402381 0.73149019 151 59567410 43 15 291 1770
1.3774742 -0.86249202 0.73149019 177 59665070 50 15 286 1770
1.3713815 -0.87043715 0.73109108 183 59762610 52 15 288 1769
