# .PCD v0.7 - Point Cloud Data file format
VERSION 0.7
FIELDS x y z intensity t reflectivity ring ambient range
SIZE 4 4 4 4 4 2 1 2 4
TYPE F F F F U U U U U
COUNT 1 1 1 1 1 1 1 1 1
WIDTH 817
HEIGHT 1
VIEWPOINT 0 0 0 1 0 0 0
POINTS 817
DATA ascii
-1.1956714 -3.5563104 0.17991409 570 77852780 30 30 486 3755
-1.2239754 -3.5678036 0.18068534 679 77951970 39 30 576 3775
-1.2425334 -3.5507982 0.18029971 760 78047200 46 30 636 3765
-1.2582341 -3.5261734 0.17960559 684 78145940 39 30 549 3747
-1.2743648 -3.5033677 0.17898861 717 78239910 42 30 583 3731
-1.2913084 -3.4833071 0.17848729 710 78340600 41 30 496 3718
-1.311949 -3.4734495 0.17841017 715 78436440 42 30 573 3716
-1.3314378 -3.4606729 0.17821735 743 78534370 44 30 568 3711
-1.3504539 -3.4468582 0.17798598 754 78631590 45 30 557 3705
-1.368608 -3.4310853 0.17767748 657 78729120 36 30 546 3697
-1.3847349 -3.4105923 0.17717618 648 78828060 36 30 605 3684
-1.4033402 -3.396493 0.17694481 704 78923530 41 30 543 3678
-1.4229895 -3.385056 0.17682911 670 79024890 38 30 560 3675
-1.4413697 -3.3707509 0.17659774 758 79119300 46 30 610 3669
-1.4604269 -3.3581798 0.17644349 759 79220440 46 30 588 3665
-1.4781688 -3.3427615 0.17617355 714 79315860 42 30 600 3658
-1.4982411 -3.3327177 0.17613499 767 79413350 47 30 645 3657
-1.5161642 -3.3180115 0.17590362 748 79510910 45 30 630 3651
-1.5289006 -3.292341 0.17520951 664 79608450 35 30 593 3633
-1.544799 -3.2738657 0.17482388 654 79707310 35 30 620 3623
-1.5631261 -3.2607231 0.17466964 686 79804080 37 30 631 3619
-1.5826656 -3.2501726 0.17463107 666 79902870 36 30 639 3618
-1.6025785 -3.2404003 0.17463107 658 79999750 35 30 657 3618
-1.6237794 -3.2331836 0.17474675 702 80099720 39 30 651 3621
-1.6431323 -3.2222695 0.17470819 702 80194110 39 30 674 3620
-1.6587294 -3.204145 0.17436114 646 80295850 34 30 665 3611
-1.6723027 -3.1824145 0.17385982 652 80390830 35 30 631 3598
-1.5598514 -2.9253678 0.16306241 792 80489850 45 30 678 3318
-1.5763419 -2.9131072 0.16294672 896 80587930 55 30 640 3315
-1.5937047 -2.9025047 0.16290815 835 80685670 49 30 615 3314
-1.6109967 -2.891799 0.16286959 789 80783630 45 30 628 3313
-1.7602668 -3.1139712 0.17316571 625 80880700 32 30 651 3580
-1.7803367 -3.1048446 0.17324284 694 80979990 38 30 590 3582
-1.7978441 -3.0912724 0.17312714 684 81075780 37 30 647 3579
-1.8127089 -3.073302 0.17281865 658 81177270 35 30 608 3571
-1.826393 -3.0535517 0.17243302 699 81272180 39 30 599 3561
-1.84198 -3.0371649 0.17220165 683 81371690 37 30 660 3555
-1.8563859 -3.0190005 0.17189315 751 81466860 43 30 589 3547
-1.873816 -3.0058584 0.17181602 657 81566990 35 30 639 3545
-1.8943635 -2.9976809 0.17197028 608 81664340 31 30 570 3549
-1.9143411 -2.9885232 0.17208597 653 81761930 35 30 639 3552
-1.9320972 -2.9758832 0.17204741 695 81860410 38 30 597 3551
-1.9492201 -2.9623039 0.17197028 701 81957680 39 30 594 3549
-1.9623617 -2.9428115 0.17162322 747 82057620 43 30 618 3540
-1.9775794 -2.9265785 0.17143041 766 82152930 44 30 619 3535
-1.9954993 -2.9143894 0.17143041 779 82252960 46 30 587 3535
-2.0144851 -2.9037311 0.17150754 747 82349260 43 30 621 3537
-2.0339909 -2.8937664 0.17162322 780 82448200 46 30 611 3540
-2.0488055 -2.8771651 0.17143041 707 82544680 39 30 592 3535
-2.0640788 -2.8613007 0.17127615 681 82643120 37 30 573 3531
-2.0821869 -2.8493879 0.17131472 718 82741140 40 30 608 3532
-2.0978451 -2.8341508 0.17119904 769 82837780 45 30 567 3529
-2.1163962 -2.822823 0.17127615 740 82936710 42 30 566 3531
-2.1324666 -2.8081937 0.17119904 718 83032080 40 30 652 3529
-2.1490469 -2.7942648 0.17116047 796 83132540 47 30 653 3528
-2.1698415 -2.7857516 0.17139184 808 83226950 49 30 618 3534
-2.1881332 -2.773953 0.17146897 838 83326560 52 30 609 3536
-2.2001162 -2.7542346 0.17116047 839 83422410 52 30 618 3528
-2.212569 -2.7352498 0.17089054 786 83521640 46 30 608 3521
-2.2280424 -2.7200775 0.17081341 889 83618260 57 30 598 3519
-2.2466071 -2.7086606 0.1709291 806 83717120 48 30 597 3522
-2.2631848 -2.6948247 0.1709291 783 83814710 46 30 617 3522
-2.2816219 -2.6831689 0.17104478 793 83910220 47 30 614 3525
-2.2993481 -2.6706314 0.17112191 767 84009330 45 30 555 3527
-2.0599313 -2.3637567 0.15612121 832 84104670 47 30 818 3138
-2.0704238 -2.3465822 0.15588984 914 84205640 55 30 776 3132
-2.0827832 -2.3316011 0.15577415 926 84300880 57 30 816 3129
-2.096379 -2.3180373 0.15573558 883 84400710 52 30 752 3128
-2.2369282 -2.442785 0.16294672 620 84496110 31 30 703 3315
-2.2797651 -2.459024 0.16452777 559 84595140 26 30 627 3356
-2.3057663 -2.4566336 0.16514477 636 84691760 32 30 700 3372
-2.3283775 -2.4503987 0.16556895 537 84789270 25 30 654 3383
-2.869127 -2.981307 0.19479911 628 84888980 38 30 1009 4141
-2.9285488 -3.0058341 0.19707428 1488 84985740 110 30 830 4200
-2.0366435 -2.0666764 0.14709765 355 85084790 13 30 632 2904
-1.9793192 -1.9842048 0.14327998 165 85179880 7 30 480 2805
-1.8506677 -1.8330113 0.13564467 71 85279570 3 30 477 2607
-1.7381244 -1.700919 0.12897341 52 85374550 3 30 444 2434
-1.549194 -1.4981785 0.11829168 58 85474710 4 30 466 2157
-1.3824599 -1.3212492 0.10892106 81 85570980 15 30 469 1914
-1.3548653 -1.2792054 0.10703151 59 85671820 11 30 456 1865
-1.3304695 -1.2409509 0.10533477 61 85768650 11 30 431 1821
-1.2761999 -1.1760279 0.10209554 52 85865350 9 30 454 1737
-1.2589538 -1.1460354 0.10082299 42 85964110 9 30 460 1704
-1.2614942 -1.1342911 0.10059162 46 86060240 10 30 465 1698
-1.2527071 -1.1126324 0.099781811 29 86159930 6 30 410 1677
-3.1858487 -2.7865801 0.19846252 285 86255450 14 30 516 4236
-3.2028871 -2.7669795 0.19846252 1496 86356260 113 30 817 4236
-3.2220869 -2.7492185 0.19857821 1415 86451670 110 30 730 4239
-3.2434835 -2.7332556 0.19880958 1493 86551240 112 30 767 4245
-3.2640369 -2.7164948 0.19900239 1445 86648560 111 30 780 4250
-3.2837338 -2.698951 0.19915664 1428 86747190 110 30 740 4254
-3.3111026 -2.6875575 0.19969651 1427 86845030 110 30 795 4268
-3.3298717 -2.6690631 0.19981219 1434 86942350 110 30 747 4271
-3.3438337 -2.6467228 0.19969651 1507 87041700 113 30 679 4268
-3.3694656 -2.6335309 0.20015925 1494 87137040 112 30 763 4280
-3.390311 -2.6164651 0.20039062 1460 87237330 111 30 792 4286
-3.4110739 -2.5992427 0.20062201 1444 87331680 111 30 781 4292
-3.4277573 -2.5788639 0.20066056 1473 87431630 112 30 790 4293
-3.4523466 -2.5643289 0.20108475 1483 87527000 112 30 775 4304
-3.474467 -2.5478184 0.20139325 1463 87626040 111 30 789 4312
-3.4948947 -2.5299628 0.20162462 1413 87722920 110 30 846 4318
-3.5144203 -2.5113719 0.20181742 1554 87821240 115 30 826 4323
-3.5354831 -2.4937868 0.20208736 1438 87919050 111 30 905 4330
-3.5531802 -2.4737573 0.20220305 1400 88015290 109 30 908 4333
-3.5707643 -2.4536042 0.20231874 1286 88115630 105 30 895 4336
-3.5948551 -2.4378088 0.20274292 1311 88211870 106 30 917 4347
-3.6213791 -2.423475 0.20328279 1302 88311590 106 30 928 4361
-3.6345124 -2.4001093 0.20320567 1344 88406600 107 30 902 4359
-3.6466577 -2.3761289 0.20308998 1279 88506730 105 30 866 4356
-3.6636918 -2.3553276 0.20320567 936 88603080 77 30 697 4359
-3.6654098 -2.3247869 0.20262724 21 88702390 1 30 448 4344
-0.47989649 -0.30442956 0.057054881 44 88798720 23 30 383 569
-0.48005372 -0.30043122 0.05697776 36 88896510 18 30 390 567
-0.48274213 -0.29799879 0.057016321 35 88994010 18 30 433 568
-0.48627594 -0.29605821 0.057093445 47 89090010 24 30 406 570
-0.48550233 -0.29154411 0.05697776 40 89189360 20 30 408 567
-0.48469177 -0.28705069 0.056862071 48 89284240 25 30 399 564
-0.47604585 -0.27809927 0.056399327 43 89384460 22 30 419 552
-0.47513461 -0.27369606 0.056283638 36 89480320 18 30 386 549
-0.46458933 -0.26395756 0.055743769 21 89579960 11 30 387 535
-0.45744494 -0.25628558 0.055358145 10 89676320 5 30 400 525
-0 -0 0 5 89775640 0 30 415 0
-0.44557226 -0.24264823 0.054702587 23 89873100 12 30 405 508
-0.4355576 -0.233859 0.054201279 26 89970570 13 30 407 495
-0.41924274 -0.221982 0.053430036 43 90068910 22 30 390 475
-0.42237669 -0.2203145 0.05350716 46 90164940 24 30 429 477
-0.42907649 -0.22041319 0.053738531 30 90265400 15 30 393 483
-0.42863005 -0.2168891 0.05366141 42 90359850 22 30 474 481
-0.4299528 -0.21425499 0.05366141 48 90459230 25 30 435 481
-0.42945781 -0.21074766 0.053584285 43 90555340 22 30 393 479
-0.44429401 -0.2145142 0.054162718 33 90654260 17 30 438 494
-0.43563572 -0.20714764 0.053738531 42 90750650 22 30 410 483
-0.43871573 -0.20530257 0.053815655 44 90848490 23 30 433 485
-0.43814492 -0.20178612 0.053738531 37 90945630 19 30 418 483
-0.44302928 -0.20071287 0.05389278 28 91042470 14 30 402 487
-0 -0 0 17 91141930 0 30 425 0
-0 -0 0 4 91237590 0 30 398 0
-0 -0 0 8 91337860 0 30 404 0
-0 -0 0 6 91432720 0 30 396 0
-4.3864951 -1.7887663 0.21793644 313 91532930 18 30 494 4741
-4.3899651 -1.7588508 0.21762794 1156 91629420 105 30 650 4733
-4.4127665 -1.7366282 0.21812925 1113 91728010 103 30 680 4746
-4.4457159 -1.7181455 0.21905474 1119 91824990 103 30 723 4770
-4.4645858 -1.694018 0.21940179 1133 91922910 104 30 691 4779
-4.4870734 -1.6711153 0.21990311 1050 92020370 101 30 709 4792
-4.5160193 -1.6503958 0.22067435 1062 92116920 103 30 813 4812
-4.5429974 -1.6287106 0.22136848 1034 92216880 102 30 766 4830
-4.5585632 -1.6027887 0.22159985 1007 92311910 101 30 742 4836
-4.5881567 -1.5816097 0.22240965 1078 92412400 104 30 732 4857
-4.6205015 -1.561085 0.22333515 1066 92507470 103 30 659 4881
-4.6470733 -1.5383431 0.22402926 1040 92607930 102 30 638 4899
-4.67449 -1.5156411 0.22476195 1029 92703600 102 30 703 4918
-4.7037077 -1.4932634 0.22557175 1045 92802890 103 30 601 4939
-4.7433252 -1.473837 0.22680575 1056 92898870 103 30 676 4971
-4.76758 -1.4493425 0.22742274 1003 92997030 101 30 663 4987
-4.7965026 -1.4260256 0.22823255 982 93094620 102 30 659 5008
-4.8329954 -1.404633 0.22935085 1022 93190940 103 30 681 5037
-4.8569069 -1.3793073 0.22996785 932 93290150 100 30 802 5053
-4.8758731 -1.3524091 0.23039202 950 93385340 101 30 790 5064
-4.8985505 -1.3263718 0.23097046 943 93485310 101 30 704 5079
-4.9249563 -1.3011247 0.23170315 931 93580140 100 30 706 5098
-4.9512367 -1.2756033 0.23243582 925 93680950 100 30 625 5117
-4.9783578 -1.2500509 0.23320708 1012 93777620 103 30 639 5137
-5.0111756 -1.2256333 0.23420969 1001 93876190 103 30 637 5163
-5.0477695 -1.2017823 0.23536655 953 93973140 103 30 679 5193
-5.0764694 -1.1757307 0.23621492 962 94070290 103 30 589 5215
-5.1167388 -1.1519966 0.23752604 883 94168400 100 30 699 5249
-5.1481194 -1.1258976 0.23849009 842 94264440 97 30 696 5274
-5.1793718 -1.0994568 0.23945415 870 94364570 100 30 732 5299
-5.2075562 -1.0720724 0.24030252 861 94458510 100 30 701 5321
-5.2355981 -1.0443834 0.24115089 867 94558610 100 30 685 5343
-5.2625146 -1.0162016 0.24196069 819 94654270 93 30 654 5364
-5.2991056 -0.98955572 0.24315612 858 94753810 101 30 568 5395
-5.3385172 -0.96302879 0.24446724 833 94850700 100 30 641 5429
-5.3689404 -0.93451959 0.24543129 836 94947500 100 30 644 5454
-5.4070988 -0.90698981 0.24670385 821 95045750 100 30 691 5487
-5.447093 -0.87934375 0.24805352 766 95142690 89 30 686 5522
-5.4701624 -0.84864891 0.24874765 715 95241390 80 30 706 5540
-5.5029435 -0.81916803 0.24982738 723 95337060 88 30 693 5568
-5.5365577 -0.78945696 0.25094569 790 95438100 100 30 622 5597
-5.5719934 -0.75963259 0.25214112 813 95532690 101 30 622 5628
-5.6062794 -0.72927481 0.25329798 788 95632880 100 30 598 5658
-5.6473441 -0.69937938 0.25472477 725 95729060 88 30 601 5695
-0.50046182 -0.062593892 0.054586902 35 95827730 18 30 449 505
-0.49686366 -0.059082244 0.054432653 30 95924570 16 30 436 501
-0.50019836 -0.056343917 0.054548338 37 96022330 19 30 415 504
-0.49755129 -0.052980516 0.054432653 26 96120770 13 30 432 501
-0.50085217 -0.050201472 0.054548338 35 96218040 18 30 425 504
-0.50214636 -0.047212869 0.054586902 30 96317620 16 30 451 505
-0.50740707 -0.044527899 0.054779712 33 96412860 17 30 441 510
-0.50966388 -0.041560255 0.054856837 44 96513770 23 30 442 512
-0.50990927 -0.038432233 0.054856837 35 96607980 18 30 408 512
-0.51412505 -0.035546996 0.055011086 34 96707980 17 30 418 516
-0.50934476 -0.032117032 0.054818273 28 96803660 14 30 405 511
-0 -0 0 3 96902480 0 30 443 0
-0 -0 0 4 96999310 0 30 433 0
-0 -0 0 4 97097150 0 30 432 0
-5.3810911 -0.16803445 0.24288619 14 97194920 1 30 444 5388
-5.381022 -0.13498922 0.24284762 744 97291760 85 30 652 5387
-5.3597689 -0.1015695 0.24199925 689 97391690 70 30 575 5365
-5.3113313 -0.068090491 0.24010971 126 97487440 9 30 446 5316
-0.56026906 -0.0073816497 0.056746386 19 97587530 10 30 443 561
-0.56030381 -0.0039437641 0.056746386 18 97683260 9 30 375 561
-0.55532128 -0.00053747703 0.056553572 23 97782570 12 30 400 556
-0.55631328 0.0028824008 0.056592137 25 97878570 13 30 392 557
-0.55428696 0.006258599 0.056515012 26 97977980 14 30 446 555
-0.557235 0.0097337449 0.056630697 32 98075210 16 30 385 558
-0.55716479 0.013152692 0.056630697 29 98173700 15 30 417 558
-0.56306499 0.016793128 0.056862071 28 98271890 14 30 397 564
-0.55995637 0.020118343 0.056746386 27 98368000 14 30 411 561
-0.5458498 0.022864306 0.056206513 24 98467390 12 30 410 547
-0.54470152 0.026157776 0.056167953 14 98562230 7 30 419 546
-0.55051494 0.029868465 0.056399327 17 98662870 9 30 404 552
-0.54134864 0.032637298 0.056052264 18 98758360 9 30 373 543
-0.49131155 0.032271974 0.054124154 5 98857570 3 30 432 493
-0 0 0 9 98953570 0 30 403 0
-0 0 0 4 99051710 0 30 434 0
-0 0 0 5 99148970 0 30 403 0
-4.8449502 0.47416747 0.22298808 281 99246250 18 30 451 4872
-4.8339992 0.50305253 0.22267959 1063 99344640 103 30 706 4864
-4.8079796 0.53016573 0.22179265 1018 99440230 102 30 762 4841
-4.7887568 0.55779374 0.22117566 1017 99541470 102 30 810 4825
-4.7723517 0.58557355 0.22067435 1027 99635460 102 30 730 4812
-4.7528138 0.61278725 0.22005735 1023 99734530 100 30 755 4796
-4.7212405 0.6381669 0.21897762 1094 99831140 103 30 698 4768
-4.6954713 0.66402692 0.21812925 1192 99930070 106 30 718 4746
-0 -0 0 4 0 0 31 351 0
-5.4074626 -0.22986656 0.11794967 10 95390 1 31 384 5413
-5.4437442 -0.19796315 0.11848111 322 194160 35 31 458 5448
-5.3728981 -0.1623646 0.11738787 638 288820 89 31 540 5376
-5.3518019 -0.12885901 0.11705383 588 388430 74 31 535 5354
-5.3235002 -0.095491141 0.1166135 610 485300 78 31 555 5325
-5.2899923 -0.06241519 0.11609725 557 584360 68 31 642 5291
-5.2792768 -0.029890146 0.11593023 488 681950 57 31 536 5280
-5.2723618 0.0025019241 0.11582394 30 778790 3 31 416 5273
-0.56188542 0.0049220189 0.04429315 27 877970 1 31 415 562
-0.55784541 0.0083196377 0.044232413 29 973260 1 31 372 558
-0.56378216 0.011854093 0.044323519 27 1073650 1 31 412 564
-0.56070006 0.015238902 0.044277966 26 1168490 1 31 388 561
-0.55459958 0.018493671 0.044186864 38 1267930 2 31 392 555
-0.56047082 0.022118406 0.044277966 29 1363220 1 31 351 561
-0.56332141 0.025686428 0.044323519 24 1461850 1 31 378 564
-0.56015724 0.028994581 0.044277966 28 1558750 1 31 391 561
-0.55397868 0.032098655 0.044186864 25 1657590 1 31 402 555
-0.55876124 0.035804857 0.044262782 29 1756490 1 31 375 560
-0.5625214 0.039503291 0.044323519 30 1852580 1 31 392 564
-0.55628544 0.042511474 0.044232413 21 1951670 1 31 358 558
-0.56697774 0.046802774 0.044399437 12 2046480 0 31 375 569
-0 0 0 6 2147020 0 31 373 0
-0 0 0 5 2241610 0 31 375 0
-0 0 0 5 2341500 0 31 399 0
-4.8208122 0.50711644 0.10937084 38 2437440 3 31 355 4848
-4.7848153 0.53304279 0.10886977 523 2536550 54 31 599 4815
-4.7794685 0.56215876 0.1088394 673 2633450 78 31 630 4813
-4.766006 0.59024835 0.10868756 691 2731500 81 31 667 4803
-4.7375054 0.61626339 0.10830797 772 2829050 90 31 600 4778
-4.7078753 0.64181626 0.10791319 751 2926060 86 31 566 4752
-4.6810803 0.66745144 0.10756397 839 3025870 100 31 563 4729
-4.6571164 0.69322288 0.10726029 830 3121190 100 31 545 4709
-4.6419058 0.72010237 0.10709327 882 3220850 102 31 605 4698
-4.6216054 0.74602616 0.10685033 819 3315770 99 31 535 4682
-4.5942593 0.77057225 0.1065011 775 3415570 91 31 608 4659
-4.5717125 0.79566675 0.10622779 788 3511520 93 31 604 4641
-4.5490313 0.82051367 0.10595448 788 3610000 93 31 641 4623
-4.5291667 0.84566206 0.10572673 762 3707270 89 31 654 4608
-4.5150561 0.87173325 0.10559008 825 3806010 97 31 632 4599
-4.5007968 0.89766318 0.10545342 859 3904820 100 31 676 4590
-4.4775748 0.92163932 0.10518011 760 4000430 85 31 635 4572
-4.4522719 0.94494987 0.10487644 809 4100790 94 31 672 4552
-4.4297833 0.96862459 0.10461831 843 4194910 100 31 627 4535
-4.4071722 0.99205911 0.10436019 898 4294880 101 31 599 4518
-4.3961315 1.017956 0.10428427 823 4390660 96 31 600 4513
-4.3684015 1.0398237 0.10395022 945 4491020 103 31 598 4491
-4.3473687 1.0630499 0.10372247 893 4587240 101 31 574 4476
-4.3291259 1.0867869 0.10354026 934 4684910 103 31 554 4464
-4.3059139 1.1090946 0.10328214 881 4782820 101 31 587 4447
-4.2912931 1.133454 0.10316067 893 4879680 101 31 604 4439
-4.2736402 1.1568928 0.10299364 929 4978950 103 31 586 4428
-4.252007 1.1790901 0.10276589 893 5075760 101 31 613 4413
-4.2273769 1.2002474 0.10249259 889 5176970 100 31 624 4395
-4.2093701 1.2230978 0.10232556 897 5270910 101 31 640 4384
-4.1950765 1.2469109 0.10221928 826 5370750 94 31 650 4377
-4.1777787 1.2697233 0.10206743 831 5466860 94 31 662 4367
-4.1536751 1.2902963 0.10180932 826 5566420 94 31 718 4350
-4.1371017 1.3130388 0.10167266 873 5662860 100 31 685 4341
-4.1232595 1.3365508 0.10158156 803 5760310 89 31 729 4335
-4.1092849 1.3599423 0.10149045 864 5857340 100 31 677 4329
-4.0913887 1.3819342 0.10133862 851 5953560 98 31 651 4319
-4.0705419 1.4027811 0.10114123 865 6054840 100 31 678 4306
-4.0458198 1.4220995 0.1008831 944 6150200 102 31 666 4289
-4.0285459 1.4438639 0.10074645 1022 6250650 105 31 667 4280
-4.0074 1.4640987 0.10054906 958 6345860 103 31 628 4267
-3.9945922 1.4872657 0.10048832 1033 6446480 106 31 614 4263
-3.9741714 1.5074961 0.10030612 1019 6542490 105 31 661 4251
-3.9480562 1.5253718 0.10003281 1037 6640500 106 31 624 4233
-3.9265249 1.5448128 0.099835418 1002 6737440 104 31 657 4220
-3.9188287 1.5696194 0.099865787 1060 6834570 106 31 612 4222
-3.9054198 1.5921267 0.09980505 1080 6933710 107 31 634 4218
-3.8835692 1.611083 0.099607661 1059 7029580 106 31 598 4205
-3.8662403 1.6317738 0.099486195 1066 7128260 106 31 616 4197
-3.8478849 1.6519185 0.099349536 1028 7223860 105 31 655 4188
-3.8303444 1.6722994 0.099228069 1089 7324220 107 31 620 4180
-3.8163552 1.6941489 0.099167332 1096 7419980 107 31 634 4176
-3.8004193 1.7150677 0.099076234 1068 7519520 106 31 696 4170
-3.7789166 1.7333554 0.09889403 1075 7617060 106 31 706 4158
-3.7618649 1.7535548 0.09878774 1123 7714680 108 31 703 4151
-3.7438042 1.7731825 0.098666273 1081 7811840 107 31 689 4143
-3.728348 1.7939545 0.098590352 1094 7909700 107 31 716 4138
-3.7118795 1.8141649 0.098499246 1131 8008040 109 31 763 4132
-3.6800754 1.8266882 0.098150022 989 8104310 103 31 781 4109
-3.6750491 1.8523827 0.098256305 1057 8203610 106 31 755 4116
-3.6671748 1.8767184 0.098317042 1070 8298560 106 31 779 4120
-3.6467161 1.8945776 0.098165207 971 8398470 103 31 748 4110
-3.6279457 1.9131888 0.098043732 965 8492950 102 31 734 4102
-3.6099663 1.9321127 0.09793745 972 8593040 103 31 779 4095
-3.5954068 1.9527959 0.097891897 980 8689180 103 31 816 4092
-3.5202947 1.9400932 0.096798666 96 8786800 7 31 452 4020
-0.81982934 0.45958877 0.050032619 58 8885590 16 31 437 940
-0.81351441 0.46263838 0.049971882 86 8982430 24 31 420 936
-0.80285889 0.46313608 0.049835231 104 9082190 29 31 431 927
-0.79481941 0.46503159 0.049744125 166 9178060 47 31 412 921
-0.78936911 0.46837288 0.049698576 191 9277240 54 31 485 918
-0.7916255 0.47629291 0.049789678 223 9372550 63 31 454 924
-0.79039681 0.48218024 0.049820047 233 9472350 66 31 461 926
-0.78742331 0.48702094 0.049820047 234 9567330 66 31 463 926
-0.78357226 0.4913134 0.049804863 154 9667170 44 31 514 925
-0.75351441 0.4789882 0.04931898 69 9763530 20 31 471 893
-0 0 0 4 9861090 0 31 596 0
-0 0 0 4 9959260 0 31 645 0
-0 0 0 3 10055970 0 31 720 0
-0 0 0 3 10156220 0 31 742 0
-0 0 0 4 10251400 0 31 707 0
-0 0 0 3 10352160 0 31 674 0
-0 0 0 7 10446480 0 31 672 0
-0 0 0 5 10547800 0 31 667 0
-0 0 0 94 10642900 0 31 590 0
-0.72596544 0.52663648 0.049379718 155 10741190 44 31 513 897
-0.72433364 0.53226274 0.049410082 135 10839030 38 31 472 899
-0.72025108 0.53610134 0.049394902 136 10935790 38 31 426 898
-0.69696522 0.52549261 0.049015306 39 11034330 11 31 400 873
-0.67383742 0.51461881 0.04863571 13 11130520 3 31 388 848
-0.62632173 0.48455656 0.04778542 12 11230990 3 31 376 792
-0 0 0 5 11326080 0 31 369 0
-0 0 0 5 11425820 0 31 358 0
-0 0 0 4 11519330 0 31 373 0
-0 0 0 6 11620190 0 31 363 0
-0 0 0 8 11715150 0 31 395 0
-0.55193424 0.46061844 0.046677005 36 11814270 3 31 386 719
-0.54068321 0.4569132 0.046509981 81 11911750 8 31 416 708
-0.54015237 0.46216798 0.046555534 88 12009240 9 31 398 711
-0.53654945 0.46482033 0.04654035 123 12107560 12 31 410 710
-0.53218132 0.46678799 0.046509981 88 12204250 9 31 411 708
-0.52706045 0.4680571 0.046464432 95 12302180 10 31 410 705
-0.52417856 0.47128227 0.046464432 110 12398070 11 31 406 705
-0.51831412 0.47180313 0.046403695 130 12497670 13 31 419 701
-0.51982892 0.47903162 0.046494797 99 12593750 10 31 437 707
-0.51761228 0.4828929 0.046509981 89 12693760 9 31 438 708
-0.51463956 0.48605981 0.046509981 82 12789760 8 31 425 708
-0.51599151 0.49334615 0.046601083 78 12888640 8 31 418 714
-0.5194326 0.50274938 0.046737738 119 12985480 12 31 418 723
-0.51633805 0.50592709 0.046737738 132 13082770 14 31 455 723
-0.51606882 0.51189703 0.046798475 130 13181330 13 31 452 727
-0.51645249 0.51858985 0.046874393 122 13277600 12 31 433 732
-0.52169096 0.53028703 0.047056597 111 13378680 11 31 415 744
-0.51982367 0.53490967 0.047086965 113 13473420 12 31 459 746
-0.54636228 0.56905222 0.047739867 72 13573690 20 31 413 789
-0.55319995 0.58325863 0.047967624 81 13669250 23 31 385 804
-0.58727723 0.62671119 0.048802733 189 13768820 53 31 414 859
-0.58206004 0.62883741 0.048772365 179 13866200 51 31 434 857
-0.58900428 0.64418709 0.049015306 194 13963740 55 31 434 873
-0.58973974 0.6529761 0.049121592 184 14062630 52 31 432 880
-0.58572203 0.65658242 0.049121592 174 14159470 49 31 436 880
-0.58896625 0.66840512 0.049288612 226 14258790 64 31 483 891
-0.5887993 0.67652583 0.049379718 216 14354190 61 31 452 897
-0.58594298 0.68164039 0.049410082 228 14455210 65 31 435 899
-0.58304608 0.68674535 0.049440451 211 14549850 60 31 425 901
-0.5788213 0.69030994 0.049440451 282 14650760 80 31 435 901
-0.57649136 0.69615597 0.049486004 236 14747450 67 31 450 904
-0.57030654 0.69736099 0.049440451 282 14845760 80 31 447 901
-0.56790507 0.70317799 0.049486004 217 14942700 61 31 384 904
-0.56482899 0.70821095 0.049516369 201 15041460 57 31 462 906
-0.56233227 0.71401715 0.049561922 220 15138780 62 31 435 909
-0.5560956 0.7150889 0.049516369 205 15235370 58 31 473 906
-0.54925686 0.71531904 0.049455635 187 15335090 53 31 439 902
-0.54304165 0.71628809 0.049410082 134 15430290 38 31 431 899
-0.53563446 0.71560878 0.049334165 99 15529710 28 31 427 894
-0.52766079 0.71406239 0.049243063 60 15625130 17 31 435 888
-0 0 0 16 15725170 0 31 477 0
-0 0 0 6 15821850 0 31 458 0
-0 0 0 4 15919740 0 31 526 0
-0 0 0 3 16017680 0 31 509 0
-0 0 0 4 16114370 0 31 512 0
-0 0 0 4 16213060 0 31 570 0
-0 0 0 4 16309100 0 31 521 0
-0 0 0 3 16409010 0 31 471 0
-0 0 0 3 16503700 0 31 462 0
-0 0 0 3 16603110 0 31 454 0
-0 0 0 7 16699080 0 31 475 0
-1.8132542 2.8673513 0.087278433 61 16798040 4 31 483 3393
-1.7929785 2.8741825 0.087202512 81 16895680 6 31 566 3388
-2.1759076 3.5355778 0.098802924 145 16993910 10 31 544 4152
-1.7700316 2.9164784 0.087566927 183 17091830 14 31 669 3412
-1.7423397 2.9109871 0.087278433 237 17188270 18 31 521 3393
-1.6151 2.7365344 0.084013924 220 17287510 18 31 520 3178
-2.1368008 3.6708548 0.10026056 589 17383770 55 31 663 4248
-1.7273054 3.010195 0.08846277 256 17483730 19 31 770 3471
-2.0147393 3.5610654 0.097891897 420 17577970 31 31 547 4092
-1.9811558 3.5524061 0.097527489 432 17678830 35 31 522 4068
-1.9231761 3.4987898 0.096388705 276 17774890 20 31 568 3993
-1.8578289 3.4296551 0.094991796 434 17873810 35 31 571 3901
-1.7924618 3.3580892 0.093564518 305 17970470 23 31 624 3807
-1.5738881 2.9929857 0.087111413 239 18068820 19 31 597 3382
-1.5628585 3.0167887 0.087354355 304 18167220 24 31 565 3398
-1.5879828 3.1118042 0.088811994 301 18263620 23 31 492 3494
-1.6227829 3.2286756 0.090634048 203 18362460 15 31 453 3614
-1.6007222 3.2340922 0.090558134 282 18457910 21 31 514 3609
-1.5370111 3.1539867 0.08903975 84 18558360 6 31 405 3509
-1.5184953 3.1651609 0.089070119 80 18653040 6 31 407 3511
-1.4768257 3.1274116 0.088280566 41 18753480 3 31 440 3459
-0 0 0 9 18848950 0 31 419 0
-0 0 0 5 18947940 0 31 357 0
-0 0 0 4 19044780 0 31 386 0
-0 0 0 5 19142060 0 31 391 0
-0 0 0 4 19240470 0 31 339 0
-0 0 0 6 19336620 0 31 383 0
-0 0 0 8 19436560 0 31 393 0
-0 0 0 4 19532610 0 31 436 0
-0 0 0 6 19631700 0 31 371 0
-0 0 0 6 19727400 0 31 412 0
-0.26435328 0.67711365 0.046798475 16 19827130 1 31 380 727
-0.27601823 0.71977335 0.047466561 48 19923240 13 31 389 771
-0.27867496 0.74015647 0.047770236 73 20021340 20 31 419 791
-0.27447635 0.7427898 0.04778542 77 20118350 22 31 406 792
-0.26785904 0.73882341 0.047694318 96 20215130 27 31 422 786
-0.2636573 0.74139458 0.047709502 104 20314170 29 31 396 787
-0.25943407 0.7439419 0.047724683 103 20410490 29 31 394 788
-0.25486445 0.74551976 0.047724683 88 20510380 25 31 406 788
-0.24868894 0.74233186 0.047648765 122 20605490 35 31 435 783
-0.24224877 0.73814684 0.047557663 126 20705880 35 31 430 777
-0.23833025 0.74152219 0.047588032 171 20801770 48 31 408 779
-0.23407762 0.74392384 0.047603212 125 20902080 35 31 453 780
-0.22832495 0.74152571 0.047542479 137 20998290 39 31 410 776
-0.22261056 0.7390852 0.047481745 78 21096510 22 31 442 772
-0.21807143 0.74043715 0.047481745 86 21193450 24 31 432 772
-0.21129787 0.73407823 0.047360275 79 21290060 8 31 399 764
-0.20733443 0.73728508 0.04739064 111 21388720 11 31 422 766
-0.20014191 0.72890615 0.047238804 186 21484760 19 31 427 756
-0.19801064 0.73880851 0.047375455 175 21585030 18 31 416 765
-0.19220054 0.73517495 0.047299538 172 21678920 18 31 428 760
-0.1871886 0.73440355 0.047269169 122 21780210 12 31 376 758
-0.1817079 0.7316584 0.047208436 91 21876070 9 31 434 754
-0.17626797 0.72887379 0.047147699 102 21973630 10 31 414 750
-0.17133074 0.72799587 0.047117334 102 22070220 10 31 449 748
-0.1673103 0.73098195 0.047147699 125 22168090 13 31 422 750
-0.16282192 0.73199481 0.047147699 124 22265990 13 31 433 750
-0.15726306 0.72809529 0.047071781 165 22364030 17 31 442 745
-0.15237884 0.72709 0.047041412 164 22462220 17 31 462 743
-0.1475129 0.72605228 0.047011048 188 22557340 19 31 479 741
-0.14305516 0.72694379 0.047011048 176 22657700 18 31 465 741
-0.13840318 0.72682595 0.046995863 152 22752340 15 31 432 740
-0.13394086 0.72766149 0.046995863 154 22854010 16 31 417 740
-0.13018057 0.7324062 0.047056597 89 22949520 9 31 413 744
-0 0 0 5 23047480 0 31 406 0
-0.09499906 0.57713795 0.044642378 21 23143800 2 31 375 585
-0.090187021 0.56981218 0.044520907 24 23241080 2 31 398 577
-0 0 0 5 23339100 0 31 419 0
-0 0 0 5 23436830 0 31 390 0
-0 0 0 6 23535630 0 31 411 0
-0 0 0 12 23631190 0 31 395 0
-0 0 0 12 23732730 0 31 403 0
-0 0 0 5 23827370 0 31 414 0
-0 0 0 5 23927530 0 31 386 0
-0 0 0 5 24022820 0 31 416 0
-0.062234856 0.60872799 0.045052338 6 24122730 0 31 358 612
-0.058107447 0.60511804 0.044991605 22 24220040 2 31 403 608
-0 0 0 4 24317140 0 31 377 0
-0 0 0 4 24417170 0 31 396 0
-0 0 0 6 24512960 0 31 400 0
-0.043972991 0.61633372 0.04514344 16 24612420 1 31 386 618
-0 0 0 4 24708720 0 31 376 0
-0 0 0 5 24808150 0 31 422 0
-0 0 0 4 24903710 0 31 350 0
-0 0 0 4 25003980 0 31 376 0
-0.023252336 0.57543576 0.044505723 23 25099820 2 31 363 576
-0.020086942 0.58555973 0.044657562 28 25198380 3 31 388 586
-0.016280465 0.57867599 0.044551276 21 25297090 2 31 384 579
-0.01214578 0.55477488 0.044186864 14 25394030 0 31 395 555
-0.032965939 1.8864651 0.064411663 7 25492720 2 31 382 1887
-0 0 0 5 25588890 0 31 397 0
-0.0092929294 1.7987393 0.06307549 45 25688730 12 31 409 1799
0.0017547911 1.8477567 0.06381949 137 25784310 38 31 396 1848
0.013092381 1.8477112 0.06381949 213 25883770 59 31 441 1848
0.024354547 1.8415973 0.063728392 263 25980010 73 31 433 1842
0.035486314 1.8324158 0.063591734 254 26079230 70 31 411 1833
0.046555843 1.8251665 0.063485451 266 26175260 74 31 471 1826
0.057414193 1.813853 0.063318424 293 26273210 81 31 416 1815
0.06832058 1.8074714 0.063227326 279 26370520 77 31 428 1809
0.078762464 1.7920338 0.062999569 257 26467800 71 31 382 1794
0.089313172 1.7825288 0.06286291 268 26567150 74 31 432 1785
0.098586679 1.7519968 0.0624074 200 26662130 55 31 443 1755
0.10896569 1.745371 0.062316298 207 26762470 57 31 448 1749
0.11892884 1.733696 0.062149275 171 26855730 47 31 392 1738
0.130007 1.7389165 0.062240377 223 26956320 62 31 377 1744
0.13987544 1.7281193 0.062088542 220 27052040 61 31 429 1734
0.14927228 1.7132819 0.061875969 193 27151350 57 31 401 1720
0.15932138 1.7073556 0.061800048 200 27247860 60 31 435 1715
0.16930342 1.7013706 0.06172413 211 27345330 63 31 396 1710
0.17890503 1.6923443 0.06160266 196 27443000 58 31 370 1702
0.1885127 1.6842583 0.061496373 196 27539800 58 31 437 1695
0.198494 1.6800908 0.06145082 212 27637950 63 31 469 1692
0.20769559 1.6699102 0.061314169 207 27734030 62 31 452 1683
0.21703716 1.6616633 0.061207883 194 27833220 58 31 412 1676
0.22668973 1.6563373 0.061147146 218 27928390 65 31 432 1672
0.23572169 1.6469959 0.061025675 173 28027320 51 31 411 1664
0.24479452 1.6385953 0.060919389 189 28123060 56 31 406 1657
0.25377318 1.6301457 0.060813103 162 28221800 48 31 411 1650
0.2626574 1.6216478 0.060706817 162 28319710 48 31 441 1643
0.27177715 1.6150749 0.060630899 200 28416910 59 31 413 1638
0.280655 1.6074661 0.060539797 161 28516610 48 31 442 1632
0.28944975 1.5998094 0.060448691 179 28612630 53 31 402 1626
0.2983444 1.5930885 0.060372774 183 28711200 55 31 462 1621
0.30697823 1.585337 0.060281672 175 28806710 52 31 458 1615
0.31572348 1.5785204 0.060205754 169 28906790 50 31 438 1610
0.32439667 1.5716565 0.060129832 177 29002660 52 31 426 1605
0.33237568 1.5618111 0.060008362 208 29102420 62 31 409 1597
0.3406727 1.553881 0.05991726 192 29198160 57 31 412 1591
0.34932357 1.5478593 0.059856527 186 29297520 55 31 429 1587
0.35701233 1.5378934 0.059735056 195 29394670 58 31 442 1579
0.36505449 1.5298371 0.059643954 194 29492760 58 31 444 1573
0.37348568 1.5236831 0.059583217 201 29591920 60 31 398 1569
0.38185513 1.5174832 0.059522483 222 29686380 66 31 420 1565
0.38966438 1.5093015 0.059431378 211 29787020 63 31 418 1559
0.39738765 1.5010813 0.059340276 209 29880760 62 31 413 1553
0.40528578 1.4937886 0.059264358 206 29982150 61 31 413 1548
0.41284251 1.4854921 0.059173256 226 30078990 67 31 445 1542
0.42031273 1.4771593 0.059082154 205 30177000 61 31 435 1536
0.42825371 1.4707114 0.059021417 212 30274210 68 31 448 1532
0.43584687 1.4632634 0.058945499 205 30371980 66 31 406 1527
0.44365522 1.4567344 0.058884762 206 30468710 66 31 408 1523
0.45169625 1.4511199 0.058839213 205 30565770 66 31 407 1520
0.45998728 1.4464147 0.058808845 229 30665360 74 31 464 1518
0.46762159 1.4397601 0.058748107 211 30760880 68 31 428 1514
0.47613314 1.4359144 0.058732927 220 30861420 71 31 443 1513
0.48365608 1.4291762 0.05867219 205 30956380 66 31 461 1509
0.49176529 1.4242908 0.058641821 217 31056690 70 31 419 1507
0.49983275 1.4193597 0.058611456 216 31152340 69 31 432 1505
0.50718415 1.4125006 0.058550719 222 31251670 72 31 474 1501
0.51378459 1.4037263 0.058459617 220 31348080 71 31 415 1495
0.52134228 1.397736 0.058414064 222 31445050 71 31 422 1492
0.52742851 1.3879658 0.058307778 222 31543770 72 31 463 1485
0.53413469 1.3800393 0.05823186 219 31640920 70 31 428 1480
0.54112929 1.3730136 0.058171127 211 31738640 68 31 448 1476
0.54842937 1.3668826 0.058125574 195 31835480 63 31 444 1473
0.55680609 1.3634918 0.058125574 176 31936250 57 31 442 1473
0.5640133 1.3572785 0.058080021 230 32031700 74 31 459 1470
0.57233077 1.3537922 0.058080021 216 32130740 70 31 469 1470
0.58062673 1.350255 0.058080021 251 32226930 81 31 451 1470
0.5869019 1.3420845 0.058004104 216 32325750 69 31 400 1465
0.59390956 1.335716 0.057958551 198 32423310 64 31 447 1462
0.60086119 1.3293122 0.057913002 212 32520980 68 31 413 1459
0.60734004 1.3219644 0.057852264 203 32618710 65 31 456 1455
0.61417359 1.3154938 0.057806715 222 32714480 72 31 441 1452
0.62137836 1.3098929 0.057776347 206 32814710 66 31 438 1450
0.62853754 1.3042532 0.057745978 196 32909110 63 31 469 1448
0.63477337 1.2967782 0.057685245 217 33008560 70 31 445 1444
0.64227408 1.2919631 0.057670061 214 33104010 69 31 479 1443
0.64928979 1.2862118 0.057639692 204 33203150 66 31 470 1441
0.65671438 1.2813134 0.057624508 212 33299780 68 31 481 1440
0.66318196 1.2745974 0.057578959 181 33398670 58 31 450 1437
0.67099029 1.2705042 0.057578959 215 33495230 69 31 430 1437
0.67783022 1.2645998 0.05754859 199 33593380 64 31 438 1435
0.68509996 1.2595381 0.057533406 226 33692590 73 31 433 1434
0.69185084 1.253559 0.057503041 237 33789070 76 31 461 1432
0.69904184 1.2484174 0.057487857 228 33889210 73 31 444 1431
0.70570272 1.2423649 0.057457488 198 33984000 64 31 466 1429
0.71281409 1.2371445 0.057442304 241 34083210 77 31 432 1428
0.71888065 1.2301562 0.057396751 192 34178030 62 31 449 1425
0.72641522 1.2257221 0.057396751 218 34278070 70 31 458 1425
0.73289394 1.2195268 0.057366386 195 34375730 63 31 443 1423
0.73984355 1.2141525 0.057351202 210 34473570 68 31 475 1422
0.74623013 1.2078878 0.057320833 193 34572190 62 31 440 1420
0.75309759 1.2024384 0.057305649 204 34667720 66 31 472 1419
0.75992632 1.1969501 0.057290465 209 34766860 67 31 439 1418
0.76617581 1.1905822 0.0572601 198 34862670 64 31 467 1416
0.7729212 1.1850206 0.057244916 212 34962620 68 31 471 1415
0.77907664 1.1785864 0.057214547 225 35057770 72 31 464 1413
0.78573793 1.1729525 0.057199363 209 35157970 67 31 465 1412
0.79292023 1.1681093 0.057199363 166 35253460 53 31 425 1412
0.7978093 1.1599246 0.057138629 210 35353940 68 31 469 1408
0.80491149 1.1550075 0.057138629 214 35449650 69 31 448 1408
0.81255925 1.1508642 0.057153814 207 35547670 67 31 457 1409
0.82018644 1.1466706 0.057168998 236 35646130 76 31 460 1410
0.82662094 1.1408062 0.057153814 184 35742630 59 31 471 1409
0.83419609 1.1365193 0.057168998 219 35842980 71 31 464 1410
0.84234554 1.1329854 0.057199363 234 35937770 75 31 490 1412
0.84687865 1.1245983 0.057138629 227 36038390 73 31 473 1408
0.85315752 1.1185851 0.057123445 219 36134070 71 31 481 1407
0.85878402 1.1117455 0.057093076 215 36234040 69 31 443 1405
0.86497402 1.105667 0.057077892 208 36330960 67 31 442 1404
0.87236214 1.1011231 0.057093076 216 36429600 70 31 452 1405
0.87972707 1.0965302 0.057108261 209 36526180 67 31 475 1406
0.88706839 1.0918883 0.057123445 228 36623200 73 31 431 1407
0.89375144 1.0864248 0.057123445 211 36721660 68 31 457 1407
0.90104002 1.0816892 0.057138629 223 36818500 72 31 446 1408
0.90766013 1.0761403 0.057138629 245 36918660 79 31 448 1408
0.91359752 1.0697896 0.057123445 226 37013000 72 31 399 1407
0.91949117 1.0634068 0.057108261 235 37113370 76 31 493 1406
0.92468303 1.056239 0.057077892 200 37208050 64 31 430 1404
0.93180907 1.0512943 0.057093076 233 37307740 75 31 448 1405
0.93824214 1.045557 0.057093076 230 37405080 74 31 485 1405
0.94396824 1.0390397 0.057077892 218 37503740 70 31 440 1404
0.95505917 1.0383842 0.057184178 251 37602660 81 31 486 1411
0.95868987 1.0295748 0.057123445 228 37699240 73 31 485 1407
0.9663595 1.0251294 0.057153814 236 37798690 76 31 481 1409
0.97263139 1.0191807 0.057153814 219 37894220 71 31 451 1409
0.9781726 1.0124738 0.057138629 205 37994010 66 31 472 1408
0.98506504 1.0071683 0.057153814 210 38088770 67 31 413 1409
0.99122638 1.0011051 0.057153814 227 38188810 73 31 449 1409
0.99735039 0.99500418 0.057153814 226 38284280 73 31 441 1409
1.0041484 0.98956829 0.057168998 243 38382910 78 31 481 1410
1.0109171 0.98408651 0.057184178 225 38479460 72 31 474 1411
1.0183765 0.97925258 0.057214547 231 38577240 74 31 479 1413
1.0243659 0.97298551 0.057214547 227 38675500 73 31 438 1413
1.0303167 0.96668178 0.057214547 216 38772170 70 31 485 1413
1.0398923 0.96374351 0.057290465 225 38872510 72 31 465 1418
1.0465231 0.95802057 0.057305649 233 38967490 75 31 513 1419
1.0546048 0.9535951 0.057351202 210 39067140 68 31 492 1422
1.0611812 0.94777298 0.057366386 194 39161750 62 31 497 1423
1.068475 0.94256824 0.057396751 239 39261670 77 31 443 1425
1.0742383 0.93599445 0.057396751 212 39357670 68 31 458 1425
1.0799613 0.92938542 0.057396751 202 39456410 65 31 503 1425
1.0856435 0.92274141 0.057396751 196 39553480 63 31 442 1425
1.091285 0.91606265 0.057396751 205 39650670 66 31 459 1425
1.0984236 0.91062719 0.057427119 198 39749050 64 31 448 1427
1.1047635 0.90450436 0.057442304 205 39845550 66 31 436 1428
1.1118464 0.89896744 0.057472672 201 39944110 65 31 460 1430
1.1204647 0.89462686 0.057533406 222 40039640 71 31 419 1434
1.1259328 0.88773495 0.057533406 227 40140440 73 31 462 1434
1.1329355 0.88203961 0.057563774 183 40235730 59 31 450 1436
1.1391184 0.87568158 0.057578959 206 40335290 66 31 499 1437
1.1460618 0.86988616 0.057609327 205 40431170 66 31 518 1439
1.1521773 0.86343807 0.057624508 189 40529260 61 31 501 1440
1.1582569 0.8569476 0.057639692 222 40626560 72 31 470 1441
1.1651069 0.85100561 0.057670061 238 40723420 77 31 453 1443
1.1743591 0.84676838 0.057745978 237 40821880 76 31 460 1448
1.1803467 0.84012729 0.057761163 213 40918290 69 31 433 1449
1.1879323 0.83459568 0.057806715 203 41018630 65 31 441 1452
1.1963154 0.82957309 0.057867449 245 41114150 79 31 468 1456
1.2030324 0.82334799 0.057897817 219 41213990 71 31 482 1458
1.2064055 0.81483001 0.057867449 193 41309420 62 31 467 1456
1.2155399 0.81018889 0.05794337 211 41408660 68 31 496 1461
1.2204883 0.80271524 0.05794337 195 41504450 63 31 475 1461
1.2279055 0.79684663 0.057988919 214 41604160 69 31 516 1464
1.2336133 0.78983724 0.058004104 212 41701430 68 31 480 1465
1.240971 0.78385735 0.058049656 228 41798920 73 31 484 1468
1.2491499 0.77834636 0.05811039 226 41897850 73 31 454 1472
1.2573076 0.77276444 0.058171127 235 41993790 76 31 478 1476
1.2662985 0.7676307 0.058247045 218 42094130 70 31 532 1481
1.2752734 0.76241571 0.058322962 190 42188190 61 31 459 1486
1.2842319 0.75711936 0.058398884 212 42288080 68 31 523 1491
1.2905813 0.75023174 0.058429249 193 42384120 62 31 514 1493
1.2986286 0.74429071 0.058489986 210 42482230 68 31 507 1497
1.303171 0.73630846 0.058489986 209 42579850 67 31 516 1497
1.3102837 0.72976041 0.058535535 227 42677610 73 31 500 1500
1.3121085 0.7202611 0.058489986 194 42775280 62 31 473 1497
1.3217773 0.71505588 0.058581088 231 42872610 74 31 518 1503
1.3287858 0.70834565 0.058626641 217 42971580 70 31 490 1506
1.3428398 0.70530206 0.05879366 255 43066070 82 31 519 1517
1.3462546 0.69658899 0.058778476 218 43165200 70 31 504 1516
1.355846 0.69104439 0.058869578 217 43259120 70 31 483 1522
1.3645267 0.68495893 0.058945499 221 43359730 71 31 503 1527
1.3731837 0.67879283 0.059021417 202 43455500 65 31 490 1532
1.3809175 0.67210782 0.059082154 224 43554830 66 31 418 1536
1.3895222 0.66578627 0.059158072 220 43651720 66 31 479 1541
1.3971971 0.658957 0.059218805 212 43749310 63 31 486 1545
1.4039339 0.65163684 0.059264358 190 43847870 57 31 442 1548
1.4160882 0.64675581 0.059401013 246 43944940 73 31 466 1557
1.422765 0.63928646 0.059446562 207 44044960 62 31 473 1560
1.4303176 0.63216454 0.059507299 210 44140120 62 31 428 1564
1.4396696 0.6257726 0.059598401 238 44239900 71 31 468 1570
1.4462395 0.61810845 0.059643954 173 44334540 52 31 448 1573
1.4546123 0.61116332 0.059719872 214 44433340 64 31 470 1578
1.463878 0.6045211 0.059810974 201 44529400 60 31 440 1584
1.4703383 0.59665781 0.059856527 211 44627130 63 31 420 1587
1.4795426 0.5898512 0.059947629 212 44724900 63 31 426 1593
1.4896492 0.58331937 0.060053915 222 44822090 66 31 440 1600
1.4987981 0.57632595 0.060145017 210 44920150 62 31 419 1606
1.5107225 0.57030398 0.060281672 213 45016440 64 31 440 1615
1.5254411 0.5652017 0.060463876 185 45117130 55 31 443 1627
1.5335776 0.55754322 0.060539797 217 45211770 65 31 460 1632
1.5426188 0.55014271 0.060630899 172 45311300 51 31 449 1638
1.5535138 0.54331392 0.060752369 161 45406200 48 31 456 1646
1.559655 0.53474671 0.060797919 161 45505700 48 31 421 1649
1.5657493 0.52612454 0.060843471 190 45602650 57 31 469 1652
1.572746 0.51776117 0.060904205 203 45700830 60 31 421 1656
1.5787475 0.50902402 0.060949758 191 45798650 57 31 460 1659
1.5856541 0.50053447 0.061010491 186 45896430 55 31 486 1663
1.5944262 0.49257115 0.061101597 172 45995470 51 31 468 1669
1.6050736 0.48509899 0.061223067 148 46090540 44 31 515 1677
1.6137718 0.47694629 0.061314169 185 46190370 55 31 428 1683
1.6224302 0.46870509 0.061405271 164 46284710 49 31 460 1689
1.6320101 0.46064788 0.061511558 186 46385280 55 31 427 1696
1.641552 0.45249069 0.061617844 187 46481490 56 31 483 1703
1.6520202 0.44449422 0.061739314 161 46580910 48 31 461 1711
1.6634188 0.43664086 0.061875969 238 46677440 71 31 459 1720
1.6718774 0.42791823 0.061967071 181 46775280 54 31 472 1726
1.6851413 0.42032188 0.062134091 185 46873120 51 31 444 1737
1.6964316 0.41210517 0.062270746 184 46969760 51 31 458 1746
1.7047656 0.40307322 0.062361848 158 47068820 44 31 452 1752
1.7208465 0.39575323 0.062574424 183 47164290 50 31 390 1766
1.7300719 0.3867189 0.062680706 187 47265030 52 31 429 1773
1.7470666 0.37928921 0.062908463 221 47360540 61 31 462 1788
1.7542522 0.36959663 0.062984385 220 47460960 61 31 411 1793
1.768241 0.36123618 0.063166589 229 47556550 63 31 419 1805
1.7841543 0.35310763 0.063379161 248 47655400 69 31 441 1819
1.7911968 0.34309778 0.063455082 197 47752450 55 31 455 1824
1.8060477 0.33447722 0.063652471 219 47851140 61 31 477 1837
1.8198756 0.32551044 0.063834675 250 47949940 69 31 496 1849
1.8326758 0.31621575 0.064001694 263 48046710 73 31 472 1860
1.8414853 0.30611748 0.064107984 233 48146030 65 31 478 1867
1.8512267 0.29608157 0.064229451 223 48240260 62 31 475 1875
1.8589376 0.28563246 0.064320557 205 48340770 57 31 479 1881
1.8745025 0.27627182 0.064533129 231 48434610 64 31 480 1895
1.8860621 0.26616916 0.064684965 234 48534580 65 31 495 1905
1.9104487 0.25768152 0.065034196 287 48630840 65 31 470 1928
1.9100106 0.24569784 0.065003827 254 48729850 58 31 481 1926
1.9293453 0.23617284 0.065277137 281 48828190 64 31 513 1944
1.9396961 0.22537495 0.065413788 304 48925740 69 31 478 1953
1.948993 0.21434891 0.065535262 304 49023750 69 31 492 1961
1.9622052 0.20363279 0.065717466 313 49119690 71 31 477 1973
1.9743638 0.19266476 0.065884486 306 49218570 70 31 466 1984
1.9864612 0.18155517 0.066051506 337 49313390 77 31 465 1995
1.9994924 0.17038989 0.066233717 319 49413680 73 31 503 2007
2.015451 0.15930986 0.066461466 355 49509510 81 31 497 2022
2.0253654 0.14760034 0.066598125 302 49609160 69 31 473 2031
2.0441902 0.13638008 0.066871434 335 49705870 76 31 453 2049
2.0599587 0.12475104 0.067099191 338 49804250 77 31 495 2064
2.0736642 0.11282364 0.067296579 358 49901840 81 31 497 2077
2.088299 0.10078157 0.067509152 389 49998410 89 31 519 2091
2.0978689 0.088350557 0.067645803 404 50097670 92 31 502 2100
2.1273487 0.076537572 0.068086132 318 50192830 54 31 551 2129
2.1277783 0.06348297 0.068086132 339 50293230 57 31 501 2129
2.1411226 0.050742134 0.068283521 349 50387730 59 31 536 2142
2.1443927 0.037658058 0.068329073 336 50487630 57 31 569 2145
2.1585808 0.02466833 0.068541646 657 50583510 107 31 606 2159
2.146693 0.011352059 0.068359442 416 50681300 70 31 606 2147
2.1467223 -0.0018200154 0.068359442 398 50778760 67 31 538 2147
2.1386719 -0.014941195 0.068237975 375 50877050 63 31 550 2139
2.1285417 -0.027938675 0.068086132 373 50975090 63 31 538 2129
2.1113353 -0.040682051 0.067828007 369 51072430 62 31 563 2112
2.0980513 -0.053314358 0.067630619 349 51171420 79 31 530 2099
2.0876906 -0.065877862 0.067478783 321 51266710 73 31 509 2089
2.0742576 -0.078205183 0.067281395 355 51367170 81 31 498 2076
2.0697429 -0.09075851 0.067220658 317 51462010 72 31 476 2072
2.0581615 -0.10291442 0.067053638 344 51562730 78 31 520 2061
2.0455112 -0.11487625 0.066871434 373 51658290 85 31 519 2049
2.0327919 -0.12668672 0.066689223 356 51757780 81 31 483 2037
2.0249932 -0.13868375 0.066582941 360 51855120 82 31 493 2030
2.0151298 -0.1504423 0.066446289 345 51952260 79 31 486 2021
2.0071919 -0.16224483 0.066339999 320 52050870 73 31 501 2014
1.9991853 -0.17395565 0.066233717 305 52146800 69 31 503 2007
1.9921064 -0.18566644 0.066142611 307 52245300 70 31 476 2001
1.9829694 -0.19710051 0.066021137 296 52341060 67 31 503 1993
1.9737673 -0.20842946 0.06589967 291 52440350 66 31 482 1985
1.9575447 -0.21887994 0.065671913 250 52535060 57 31 469 1970
1.9511994 -0.23030448 0.065595992 271 52634970 62 31 521 1965
1.9259335 -0.23932977 0.065231584 229 52731840 52 31 488 1941
1.9164962 -0.25011298 0.06511011 219 52831670 50 31 483 1933
1.9119531 -0.26146331 0.065064564 230 52928670 52 31 433 1930
1.9004138 -0.27178133 0.064912722 237 53024980 54 31 454 1920
1.8937652 -0.2827023 0.064836808 216 53124290 60 31 432 1915
1.8850781 -0.29324594 0.064730518 246 53220730 68 31 491 1908
1.8792946 -0.30417082 0.06466978 222 53321020 62 31 449 1904
1.8724622 -0.31487069 0.064593866 244 53415680 68 31 501 1899
1.8675395 -0.32584047 0.064548314 263 53515720 73 31 522 1896
1.8566486 -0.33569857 0.064411663 242 53611880 67 31 470 1887
1.8486561 -0.34598503 0.064320557 258 53710770 72 31 512 1881
1.8396257 -0.35599685 0.064214267 254 53807210 70 31 489 1874
1.8305423 -0.36591089 0.064107984 228 53904350 63 31 445 1867
1.824345 -0.37633082 0.064047247 250 54001620 69 31 478 1863
1.8122199 -0.3854447 0.063895412 236 54098900 65 31 461 1853
1.8059133 -0.39570382 0.063834675 226 54198370 63 31 462 1849
1.7966225 -0.40524223 0.063728392 224 54295010 62 31 463 1842
1.7882571 -0.41490683 0.063637286 210 54395440 58 31 469 1836
1.7788682 -0.42425287 0.063531004 261 54490580 72 31 435 1829
1.7733175 -0.43444818 0.063485451 263 54591000 73 31 450 1826
1.75898 -0.4424029 0.063303247 253 54685310 70 31 479 1814
1.7591374 -0.45393482 0.063348792 269 54783320 75 31 443 1817
1.756319 -0.46472013 0.063348792 285 54880330 79 31 460 1817
1.7466779 -0.47366112 0.06324251 276 54978800 77 31 472 1810
1.7263937 -0.47956556 0.0629692 250 55077270 69 31 454 1792
1.7253426 -0.49069509 0.062999569 270 55174350 75 31 443 1794
1.7194185 -0.50043625 0.062954016 284 55273110 79 31 484 1791
1.7038546 -0.50727743 0.062756628 265 55368760 73 31 468 1778
1.6959261 -0.51627022 0.062680706 265 55468290 73 31 478 1773
1.6869966 -0.52488858 0.062589608 255 55562750 71 31 489 1767
1.6780254 -0.53341681 0.062498502 308 55663220 85 31 492 1761
1.671867 -0.54277885 0.062452953 287 55757160 80 31 486 1758
1.6552143 -0.5486331 0.062240377 240 55856870 66 31 422 1744
1.6470797 -0.55718064 0.062164459 240 55954010 67 31 455 1739
1.6436299 -0.56727642 0.062164459 267 56052470 74 31 450 1739
1.6335143 -0.57503194 0.062058173 232 56151240 64 31 427 1732
1.6261898 -0.58369595 0.06199744 214 56247720 59 31 445 1728
1.6197599 -0.59263462 0.061951887 247 56348320 74 31 437 1725
1.6104702 -0.6004706 0.061860785 218 56443830 65 31 487 1719
1.6058204 -0.60998666 0.061845601 237 56544160 71 31 452 1718
1.5992489 -0.61874813 0.061800048 267 56637800 80 31 475 1715
1.5935611 -0.62781775 0.061769683 266 56736890 79 31 439 1713
1.5878222 -0.63684088 0.061739314 285 56833550 85 31 453 1711
1.5811067 -0.64544004 0.061693761 256 56932420 76 31 402 1708
1.5697271 -0.65206665 0.061572291 222 57028760 66 31 468 1700
1.5684605 -0.66285157 0.061617844 254 57127780 75 31 429 1703
1.562526 -0.67167467 0.061587475 260 57226660 78 31 461 1701
1.5556258 -0.68005019 0.061541926 263 57324300 78 31 467 1698
1.5486817 -0.68836635 0.061496373 261 57423710 78 31 512 1695
1.5353137 -0.69374597 0.061344534 204 57518460 61 31 454 1685
