# .PCD v0.7 - Point Cloud Data file format
VERSION 0.7
FIELDS x y z intensity t reflectivity ring ambient range
SIZE 4 4 4 4 4 2 1 2 4
TYPE F F F F U U U U U
COUNT 1 1 1 1 1 1 1 1 1
WIDTH 843
HEIGHT 1
VIEWPOINT 0 0 0 1 0 0 0
POINTS 843
DATA ascii
-4.7589531 -4.3860831 1.5905159 15 85740440 1 22 323 6657
-4.789372 -4.3600702 1.5916883 11 85840080 1 22 323 6662
-4.8247142 -4.3383956 1.5945017 11 85935970 1 22 320 6674
-0 -0 0 13 86034950 0 22 346 0
-4.9243865 -4.3198609 1.6095074 4 86131720 0 22 342 6738
-0 -0 0 5 86229950 0 22 337 0
-0 -0 0 6 86328940 0 22 310 0
-5.0758672 -4.289937 1.6324849 11 86425450 1 22 283 6836
-5.0162239 -4.1871276 1.6055216 478 86524900 70 22 476 6721
-4.9067307 -4.0450516 1.5633181 172 86621140 21 22 350 6541
-4.9435267 -4.0246806 1.5670695 374 86721870 45 22 405 6557
-4.9552422 -3.9839253 1.5630836 475 86816530 65 22 427 6540
-5.0108256 -3.9782078 1.5726967 164 86916900 20 22 383 6581
-4.9455848 -3.8772724 1.5452645 66 87013160 7 22 324 6464
-0 -0 0 7 87111720 0 22 324 0
-0 -0 0 5 87208810 0 22 283 0
-0 -0 0 4 87306460 0 22 317 0
-6.1334715 -4.5689049 1.8742168 16 87404420 2 22 324 7867
-0 -0 0 4 87500460 0 22 324 0
-0 -0 0 4 87600000 0 22 294 0
-0 -0 0 5 87695210 0 22 301 0
-0 -0 0 5 87795820 0 22 303 0
-0 -0 0 5 87890340 0 22 322 0
-0 -0 0 8 87989850 0 22 309 0
-0.54803735 -0.37737462 0.19006543 8 88086880 3 22 301 684
-0.54549789 -0.37075678 0.18865865 8 88186380 3 22 292 678
-0 -0 0 5 88283340 0 22 308 0
-0.53616798 -0.35500112 0.18467277 10 88381050 4 22 315 661
-0.52934605 -0.34591433 0.18209367 12 88479470 4 22 311 650
-0.52161264 -0.33640349 0.1792801 13 88576110 5 22 296 638
-0.52366698 -0.33319661 0.1792801 25 88676300 9 22 327 638
-0.52404791 -0.32895467 0.17881118 25 88770700 9 22 316 636
-0.516927 -0.32016513 0.17623208 28 88870770 11 22 375 625
-0.50805223 -0.31047341 0.17318405 16 88965410 6 22 325 612
-0.50827551 -0.30635831 0.17271513 19 89064190 7 22 276 610
-0.49923703 -0.29685333 0.16966711 21 89160860 8 22 342 597
-0.50357544 -0.29524145 0.17037049 27 89258550 10 22 285 600
-0.48763072 -0.28205606 0.16544676 15 89356440 6 22 278 579
-0.49698439 -0.28333622 0.16755693 11 89454180 4 22 356 588
-0.4791424 -0.26946992 0.16216427 15 89553020 8 22 296 565
-0 -0 0 4 89648980 0 22 298 0
-0.48241311 -0.26356983 0.16216427 14 89749720 7 22 290 565
-0.45222244 -0.24379484 0.15348913 27 89844510 14 22 302 528
-0.43991461 -0.23383079 0.1497377 31 89944850 16 22 314 512
-0.43355665 -0.22713344 0.14762753 48 90040340 25 22 342 503
-0.43407452 -0.22403049 0.14739308 45 90139050 23 22 294 502
-0.43805191 -0.22266212 0.14809646 48 90236880 25 22 297 505
-0.43591806 -0.21825911 0.14715861 51 90334150 26 22 316 501
-0.43812463 -0.21600264 0.14739308 37 90431540 19 22 311 502
-0.44207618 -0.2145613 0.14809646 46 90528630 24 22 318 505
-0.44074234 -0.21060991 0.14739308 32 90627620 17 22 308 502
-0.44114313 -0.20749541 0.14715861 40 90722830 21 22 355 501
-0.44595066 -0.20638777 0.14809646 49 90822590 25 22 344 505
-0.45431355 -0.20681019 0.14997217 51 90916800 26 22 303 513
-0.45112133 -0.20206934 0.14879985 16 91016840 8 22 281 508
-0 -0 0 5 91113030 0 22 288 0
-0 -0 0 5 91211900 0 22 301 0
-0 -0 0 4 91308960 0 22 303 0
-0 -0 0 5 91406950 0 22 298 0
-0 -0 0 6 91505180 0 22 304 0
-0 -0 0 4 91602370 0 22 287 0
-0 -0 0 3 91701570 0 22 319 0
-0 -0 0 5 91796870 0 22 308 0
-0 -0 0 4 91897220 0 22 326 0
-0 -0 0 5 91991460 0 22 299 0
-0 -0 0 3 92091170 0 22 287 0
-0 -0 0 7 92187810 0 22 320 0
-0 -0 0 10 92286220 0 22 326 0
-7.5496449 -2.5630462 1.9525275 9 92383880 1 22 327 8201
-0 -0 0 5 92481540 0 22 291 0
-4.8450894 -1.5804193 1.2587501 31 92580410 2 22 337 5242
-4.8139391 -1.5376794 1.2484337 112 92676450 8 22 334 5198
-7.1267481 -2.2262511 1.8303721 27 92776610 4 22 327 7680
-4.893815 -1.4972093 1.2639083 51 92870430 3 22 372 5264
-7.1069536 -2.1247311 1.8186489 150 92970970 24 22 419 7630
-7.0218673 -2.0525019 1.7940302 283 93065720 46 22 381 7525
-6.9829102 -1.9947217 1.7811347 182 93164860 28 22 401 7470
-6.989399 -1.9502734 1.7797279 94 93261430 14 22 445 7464
-5.0237427 -1.3698465 1.2854789 127 93359350 9 22 369 5356
-5.0405102 -1.3412385 1.2875891 128 93456930 9 22 352 5365
-5.0646443 -1.3144239 1.291575 109 93553690 9 22 418 5382
-7.071918 -1.7874268 1.788872 223 93653760 36 22 442 7503
-7.1186271 -1.7528123 1.7977816 365 93750020 59 22 403 7541
-7.1330299 -1.7100046 1.7987195 445 93850060 80 22 399 7545
-7.1850491 -1.6758974 1.8090359 186 93944350 30 22 366 7589
-8.9113884 -2.0199661 2.2334149 9 94044270 2 22 283 9399
-8.982482 -1.9781848 2.2479515 18 94139620 4 22 303 9461
-9.0239239 -1.9293194 2.2552199 12 94238420 3 22 271 9492
-0 -0 0 4 94335760 0 22 291 0
-0 -0 0 6 94432520 0 22 316 0
-0 -0 0 5 94530530 0 22 273 0
-0.45254344 -0.089243576 0.14082809 14 94627490 7 22 279 474
-0.47890818 -0.091151185 0.14715861 25 94727080 13 22 338 501
-0.46892539 -0.086366415 0.14457951 17 94822740 9 22 295 490
-0.47999069 -0.085267387 0.14715861 22 94921540 11 22 323 501
-0.48722163 -0.083412066 0.14879985 29 95016700 15 22 324 508
-0.49444762 -0.081471175 0.1504411 31 95116810 16 22 294 515
-0.49782234 -0.078868173 0.15114449 31 95212400 16 22 330 518
-0.50022137 -0.076088578 0.15161341 26 95311170 13 22 321 520
-0.49778962 -0.072620861 0.15091002 33 95409130 17 22 334 517
-0.49726197 -0.069438703 0.15067557 31 95506790 16 22 268 516
-0.50057256 -0.066747747 0.15137894 29 95604960 15 22 320 519
-0.5029034 -0.063904189 0.15184788 29 95702020 15 22 317 521
-0.50425208 -0.060925879 0.15208234 22 95801110 11 22 335 522
-0.50654978 -0.058036145 0.15255126 27 95896300 14 22 336 524
-0.50205988 -0.054442979 0.15137894 21 95996590 11 22 307 519
-0.49270576 -0.050452854 0.14903432 15 96091770 8 22 309 509
-0.50462699 -0.048447654 0.15184788 20 96192110 10 22 288 521
-0.49231887 -0.044323832 0.14879985 16 96288600 8 22 321 508
-0.47997966 -0.040352914 0.14575183 4 96387040 2 22 319 495
-0 -0 0 4 96485120 0 22 323 0
-0 -0 0 4 96581940 0 22 272 0
-0 -0 0 6 96680430 0 22 306 0
-5.5468702 -0.28533474 1.3691823 84 96776420 7 22 342 5713
-5.5339489 -0.25064564 1.3656654 710 96876010 86 22 473 5698
-5.4965262 -0.2151936 1.3562869 713 96970970 87 22 462 5658
-5.4685946 -0.18052359 1.3492529 742 97071200 92 22 440 5628
-5.4404459 -0.1462045 1.3422191 718 97166090 88 22 481 5598
-5.4043069 -0.11208243 1.3333094 694 97265680 77 22 558 5560
-5.3805923 -0.078584105 1.3274479 647 97362870 69 22 582 5535
-5.3586149 -0.045395985 1.3220552 722 97461430 82 22 578 5512
-5.3247681 -0.012462399 1.313849 772 97559080 91 22 481 5477
-5.2916927 0.020058572 1.3058772 809 97656790 98 22 532 5443
-5.2584195 0.052173182 1.2979054 799 97755330 97 22 532 5409
-5.2327285 0.084011301 1.2918094 783 97850910 93 22 467 5383
-5.2049026 0.11549144 1.2852445 835 97951880 96 22 514 5355
-5.1817465 0.14677483 1.2798518 846 98046370 99 22 561 5332
-5.1642323 0.17798406 1.2758659 785 98147610 87 22 592 5315
-5.1397319 0.20870228 1.2702388 788 98243120 88 22 619 5291
-5.1131082 0.23903421 1.2641428 865 98341910 100 22 573 5265
-5.0843649 0.26894301 1.2575778 822 98438650 94 22 519 5237
-5.0515666 0.29827571 1.2500749 857 98536280 100 22 526 5205
-5.0205407 0.32734424 1.243041 942 98634880 101 22 554 5175
-4.9912891 0.35618335 1.2364761 908 98731460 100 22 536 5147
-4.9667192 0.38505566 1.2310834 880 98830820 97 22 582 5124
-4.945858 0.41396752 1.2266285 912 98925610 100 22 588 5105
-4.92483 0.44263795 1.2221738 867 99025830 94 22 582 5086
-4.9075074 0.47144109 1.2186568 915 99120070 100 22 619 5071
-4.8890505 0.49994865 1.2149054 840 99220550 89 22 637 5055
-4.8597989 0.52708542 1.2085749 945 99315670 101 22 609 5028
-4.8381252 0.5547747 1.20412 910 99414410 100 22 609 5009
-4.8095398 0.58139551 1.198024 926 99512520 97 22 551 4983
-4.7846684 0.60818017 1.1928658 990 99609580 101 22 561 4961
-4.7683215 0.63584554 1.1898178 1047 99706670 103 22 539 4948
-4.7393007 0.6615752 1.1837218 1022 99804080 102 22 525 4922
-4.7120681 0.68725502 1.1780946 1006 99903500 101 22 577 4898
-0 -0 0 3 0 0 23 227 0
-5.5102592 -0.23042761 1.2135863 72 98090 8 23 265 5640
-5.4343767 -0.19384062 1.1970129 447 194880 54 23 347 5561
-5.4168949 -0.15993942 1.193027 494 290640 62 23 424 5542
-5.3923602 -0.12609838 1.1875725 474 390230 58 23 395 5516
-5.3783684 -0.092752591 1.1844256 483 485840 60 23 405 5501
-5.3534164 -0.059461128 1.1789711 555 586740 73 23 364 5475
-5.3243484 -0.02645896 1.1726774 536 681380 69 23 370 5445
-5.2833452 0.0061734985 1.1638663 593 781330 80 23 378 5403
-5.2480102 0.03834315 1.1563139 534 877400 65 23 387 5367
-5.2173686 0.070143893 1.1498104 559 975740 69 23 369 5336
-5.1992435 0.10181567 1.1460341 559 1072910 69 23 371 5318
-5.1819048 0.13329257 1.1424677 541 1170810 66 23 390 5301
-5.1633987 0.16452965 1.1386915 511 1268180 61 23 418 5283
-5.1417737 0.19543402 1.1342859 574 1364320 72 23 419 5262
-5.1053128 0.22543608 1.1267335 587 1463210 74 23 405 5226
-5.0725846 0.25519359 1.1200203 620 1558620 80 23 375 5194
-5.0318751 0.2841191 1.1116288 618 1659640 74 23 380 5154
-5.0066166 0.31352836 1.1065938 584 1755420 68 23 374 5130
-4.9919176 0.3433736 1.1038666 617 1854710 74 23 367 5117
-4.968266 0.37239492 1.0992512 595 1950470 70 23 421 5095
-4.9493198 0.40153298 1.0956848 604 2048440 72 23 438 5078
-4.9321523 0.43062216 1.0925379 602 2146130 71 23 435 5063
-4.9070258 0.4587898 1.0877128 612 2243210 73 23 457 5040
-4.8778486 0.48627844 1.0820484 698 2341580 89 23 407 5013
-4.8407416 0.51260489 1.0747058 604 2437820 66 23 380 4978
-4.824873 0.54088485 1.0719786 643 2537730 73 23 406 4965
-4.8030143 0.5683018 1.0679926 672 2632420 78 23 397 4946
-4.7722688 0.59438568 1.0621185 706 2732930 84 23 415 4918
-4.7442937 0.62049341 1.0568738 682 2827650 80 23 413 4893
-4.7248974 0.64747262 1.0535171 661 2927510 76 23 379 4877
-4.6985741 0.67326832 1.048692 625 3024380 70 23 437 4854
-4.674047 0.69905418 1.0442864 676 3122370 79 23 435 4833
-4.6561437 0.72561646 1.0413494 681 3219650 80 23 419 4819
-4.641952 0.75261027 1.0392514 636 3316540 72 23 458 4809
-4.6256762 0.77913308 1.036734 647 3415510 69 23 459 4797
-4.6053972 0.80481237 1.0333774 666 3511020 72 23 427 4781
-4.5869021 0.83062017 1.0304403 719 3611030 81 23 415 4767
-4.5711474 0.85677093 1.0281327 734 3705470 84 23 408 4756
-4.5408459 0.87997353 1.0226781 726 3807000 82 23 441 4730
-4.525773 0.9059028 1.0205802 734 3903040 84 23 426 4720
-4.5019355 0.92990273 1.0165943 733 4001280 84 23 400 4701
-4.4712791 0.95222074 1.0111398 771 4098820 91 23 409 4675
-4.4472055 0.97566247 1.0071537 806 4195680 97 23 405 4656
-4.4239674 0.99905986 1.0033776 746 4293650 86 23 419 4638
-4.4120388 1.0248603 1.0021188 744 4390410 86 23 446 4632
-4.399961 1.050552 1.0008601 752 4490960 87 23 424 4626
-4.3791871 1.0740407 0.99771321 747 4585860 86 23 466 4611
-4.3526015 1.0958834 0.99330765 692 4685380 74 23 444 4590
-4.3192868 1.1157306 0.98743355 685 4780340 72 23 501 4562
-4.3066878 1.1407119 0.98617482 666 4880310 69 23 469 4556
-4.2948895 1.1658365 0.98512584 656 4976300 68 23 449 4551
-4.2801185 1.1900743 0.98344755 746 5076310 83 23 440 4543
-4.2595692 1.2125704 0.98051047 691 5174270 73 23 459 4529
-4.2445383 1.2364984 0.97883219 719 5271380 78 23 424 4521
-4.2218776 1.258056 0.97547555 769 5369180 87 23 388 4505
-4.2019186 1.2802365 0.97274828 758 5466040 85 23 428 4492
-4.1883826 1.3042524 0.97148955 790 5565880 91 23 409 4486
-4.1691189 1.3263736 0.96897209 714 5660710 77 23 388 4474
-4.1404424 1.3452891 0.96435672 785 5760600 90 23 417 4452
-4.1135473 1.364518 0.96016091 835 5854260 99 23 385 4432
-4.0949092 1.386287 0.95785326 894 5953730 101 23 390 4421
-4.0706134 1.4059651 0.95428681 772 6051840 85 23 441 4404
-4.0628324 1.4312401 0.95449662 860 6150230 100 23 448 4405
-4.0530534 1.455812 0.95428681 805 6247920 90 23 433 4404
-4.0339437 1.476959 0.95197916 769 6345640 84 23 490 4393
-4.0000691 1.4924624 0.94631487 830 6444600 95 23 496 4366
-3.9826095 1.5138541 0.94442672 849 6541120 99 23 505 4357
-3.97051 1.5372043 0.94379735 806 6639770 91 23 503 4354
-3.9546351 1.5590298 0.94232887 856 6734770 100 23 543 4347
-3.9413645 1.5818101 0.9414897 860 6834180 100 23 500 4343
-3.9216268 1.6019001 0.93918198 771 6930370 85 23 550 4332
-3.9045 1.6229327 0.9375037 818 7028980 93 23 490 4324
-3.8890646 1.6445765 0.93624496 786 7124840 87 23 531 4318
-3.8708155 1.664934 0.93435687 861 7223290 100 23 504 4309
-3.8488798 1.6835634 0.9316296 870 7321200 100 23 506 4296
-3.8286488 1.7027805 0.92932194 855 7418930 100 23 467 4285
-3.8101091 1.7226179 0.92743379 874 7517500 100 23 446 4276
-3.7950249 1.743924 0.92638487 901 7614760 101 23 406 4271
-3.7745063 1.7626294 0.92407721 930 7713950 102 23 421 4260
-3.7539017 1.7811488 0.9217695 954 7808160 103 23 452 4249
-3.7349739 1.8003304 0.9198814 962 7908880 103 23 487 4240
-3.7238569 1.8232138 0.9198814 968 8004170 103 23 451 4240
-3.7108486 1.8451586 0.91946185 1056 8103210 107 23 468 4238
-3.684617 1.8604063 0.9158954 976 8199620 103 23 440 4221
-3.6670408 1.8798593 0.91442686 939 8297450 102 23 468 4214
-3.6519673 1.9005202 0.91358775 1016 8395300 104 23 423 4210
-3.6341844 1.9196976 0.91211921 984 8490980 103 23 446 4203
-3.6180277 1.939652 0.91107023 924 8591180 101 23 445 4198
-3.6000447 1.9585464 0.90960175 947 8686090 102 23 429 4191
-3.583679 1.9782379 0.90855277 922 8785670 101 23 444 4186
-3.5655007 1.9968473 0.90708429 950 8881170 102 23 441 4179
-3.5480795 2.0157909 0.90582556 962 8981300 103 23 422 4173
-3.5314074 2.035084 0.90477657 869 9077670 100 23 485 4168
-3.5163209 2.0552347 0.90414721 917 9176630 101 23 415 4165
-3.5028028 2.0762734 0.9039374 836 9272720 93 23 430 4164
-3.4950264 2.1007478 0.90519613 969 9371260 103 23 459 4170
-3.4745548 2.1175761 0.90330803 885 9469050 100 23 467 4161
-3.4565046 2.1357737 0.9020493 858 9564580 97 23 447 4155
-3.4367044 2.152792 0.90037102 875 9664870 100 23 436 4147
-3.4176514 2.1701717 0.89890248 824 9759430 91 23 497 4140
-3.405916 2.1921592 0.89932203 882 9859400 100 23 470 4142
-3.3907628 2.2119482 0.89890248 875 9954390 100 23 490 4140
-3.3754952 2.2316339 0.89848292 806 10054270 88 23 466 4138
-3.3568637 2.2490399 0.89722419 843 10151310 95 23 502 4132
-3.3421917 2.2690461 0.89701438 594 10249710 55 23 416 4131
-3.3451264 2.301142 0.90141994 76 10347420 5 23 237 4152
-0.50517809 0.35347995 0.16254234 19 10444360 2 23 212 630
-0.51498282 0.36502889 0.16568917 12 10544000 1 23 250 645
-0.50080234 0.35965264 0.16254234 11 10639480 1 23 220 630
-0.50175369 0.36501268 0.1633815 11 10738620 1 23 230 634
-0.50581145 0.37271121 0.1650598 9 10834190 1 23 217 642
-0.52078062 0.38863736 0.16967517 7 10933380 0 23 204 664
-0.49963725 0.37771428 0.16464023 7 11029160 0 23 233 640
-0 0 0 5 11128170 0 23 220 0
-0.5073474 0.3933773 0.16799685 10 11225810 1 23 210 656
-0.50800514 0.39889193 0.16883601 4 11323550 0 23 208 660
-0.47565287 0.37832996 0.16065423 9 11420940 1 23 270 621
-0.47789937 0.38491133 0.16191298 10 11516280 1 23 249 627
-0 0 0 4 11616320 0 23 221 0
-0 0 0 5 11710850 0 23 236 0
-0 0 0 4 11811500 0 23 222 0
-0 0 0 3 11905990 0 23 239 0
-0 0 0 2 12006290 0 23 243 0
-0 0 0 4 12101840 0 23 293 0
-0 0 0 3 12201330 0 23 279 0
-0 0 0 3 12296260 0 23 302 0
-0 0 0 4 12395120 0 23 332 0
-0 0 0 4 12492460 0 23 326 0
-0 0 0 4 12589760 0 23 312 0
-0 0 0 4 12689750 0 23 317 0
-0 0 0 2 12784600 0 23 295 0
-0 0 0 3 12885440 0 23 310 0
-0 0 0 3 12979090 0 23 288 0
-0 0 0 3 13079520 0 23 307 0
-0 0 0 3 13174890 0 23 316 0
-0 0 0 10 13274220 0 23 296 0
-0 0 0 4 13372060 0 23 338 0
-0 0 0 11 13469970 0 23 307 0
-0 0 0 27 13568110 0 23 306 0
-0.58744264 0.62007761 0.21352112 30 13664560 8 23 277 873
-0 0 0 12 13764390 0 23 286 0
-0 0 0 23 13860130 0 23 267 0
-0 0 0 17 13960090 0 23 289 0
-0 0 0 4 14055760 0 23 362 0
-0 0 0 3 14155640 0 23 365 0
-0 0 0 3 14251660 0 23 370 0
-0 0 0 3 14350250 0 23 407 0
-0 0 0 4 14448490 0 23 488 0
-0 0 0 4 14545650 0 23 538 0
-0 0 0 3 14644840 0 23 524 0
-0 0 0 3 14741960 0 23 605 0
-0 0 0 3 14841110 0 23 546 0
-0 0 0 2 14936000 0 23 576 0
-0 0 0 2 15037000 0 23 585 0
-0 0 0 2 15131390 0 23 492 0
-0 0 0 2 15230800 0 23 442 0
-0 0 0 4 15327730 0 23 413 0
-0 0 0 3 15425680 0 23 394 0
-0 0 0 4 15522630 0 23 371 0
-0 0 0 3 15619870 0 23 361 0
-0 0 0 3 15719170 0 23 366 0
-0 0 0 7 15815280 0 23 373 0
-2.4023075 3.3757701 0.91925204 54 15914770 4 23 363 4237
-2.401228 3.4184434 0.92659467 180 16009800 13 23 405 4272
-2.3601434 3.4041927 0.91904223 285 16109250 21 23 380 4236
-2.3568881 3.4444258 0.9257555 413 16205150 31 23 380 4268
-2.3411834 3.466924 0.92785341 433 16304050 36 23 421 4278
-2.324749 3.4885449 0.9297415 523 16401140 47 23 377 4287
-2.3081369 3.5100946 0.9316296 530 16498370 48 23 430 4296
-2.291348 3.5315716 0.93351769 519 16595880 46 23 420 4305
-2.2743821 3.5529745 0.93540579 441 16692850 37 23 373 4314
-2.2582843 3.5759547 0.9377135 413 16791940 31 23 390 4325
-2.2419899 3.598871 0.94002116 328 16888270 25 23 368 4336
-2.2244749 3.6200557 0.94190925 292 16988270 22 23 342 4345
-2.204756 3.6378167 0.94295824 225 17083310 17 23 305 4350
-2.1773744 3.6428854 0.94086033 174 17182800 13 23 303 4340
-2.1410723 3.6325963 0.93498623 60 17278850 4 23 224 4312
-0 0 0 6 17378340 0 23 234 0
-0 0 0 8 17475030 0 23 249 0
-0 0 0 5 17572350 0 23 220 0
-0 0 0 4 17671230 0 23 264 0
-0 0 0 3 17767880 0 23 203 0
-0 0 0 4 17867310 0 23 210 0
-0 0 0 5 17962200 0 23 220 0
-0 0 0 3 18062870 0 23 229 0
-0 0 0 5 18158110 0 23 207 0
-0 0 0 4 18257590 0 23 234 0
-0 0 0 5 18353210 0 23 212 0
-0 0 0 5 18451900 0 23 237 0
-1.5648654 3.2167406 0.79778409 4 18549430 0 23 233 3658
-1.5260792 3.1866064 0.78834355 28 18646640 2 23 215 3613
-1.4747883 3.1287069 0.7723996 130 18745360 10 23 268 3537
-1.4304435 3.0836024 0.75960243 189 18841220 14 23 255 3476
-1.3830516 3.0300698 0.74491721 296 18941010 23 23 295 3406
-1.3540105 3.0153127 0.73946267 357 19035800 28 23 320 3380
-1.3216442 2.9922659 0.73212004 387 19135310 30 23 356 3345
-1.2806444 2.9483142 0.71995229 489 19230970 44 23 368 3287
-1.2513821 2.9300451 0.71386838 406 19329870 33 23 328 3258
-1.2170885 2.89891 0.70484746 508 19426930 48 23 330 3215
-1.1884513 2.8801172 0.69876355 471 19525670 44 23 365 3186
-1.1575165 2.8547413 0.69121116 441 19622530 40 23 333 3150
-1.1265762 2.8281875 0.68344897 445 19720070 40 23 393 3113
-1.0963624 2.802273 0.67589653 451 19818940 41 23 389 3077
-1.0665095 2.7760956 0.66834414 433 19914530 41 23 371 3041
-1.0377105 2.751488 0.66121131 489 20014260 49 23 341 3007
-1.0058558 2.7174644 0.65198058 473 20108370 47 23 372 2963
-0.97980547 2.6978571 0.64610648 478 20207970 47 23 356 2935
-0.95271969 2.6743498 0.63939321 481 20304080 48 23 393 2903
-0.92789704 2.6561501 0.63393873 466 20403220 52 23 416 2877
-0.90016168 2.6284986 0.62638628 495 20500160 56 23 368 2841
-0.87467027 2.606169 0.62009263 504 20598140 58 23 319 2811
-0.84887546 2.581769 0.61337936 497 20696500 56 23 336 2779
-0.82401365 2.5590129 0.6070857 522 20793620 61 23 353 2749
-0.80093557 2.5407116 0.60184097 480 20893910 54 23 338 2724
-0.77926815 2.5259612 0.59743536 483 20988890 54 23 332 2703
-0.75724626 2.5091693 0.59261024 486 21089030 63 23 344 2680
-0.73462832 2.4893904 0.5871557 486 21182730 63 23 402 2654
-0.71201038 2.4684896 0.58149141 449 21282530 56 23 381 2627
-0.68994266 2.4483473 0.57603687 448 21377980 56 23 348 2601
-0.66918874 2.431798 0.5714215 467 21477090 60 23 418 2579
-0.64764768 2.4113107 0.56596702 466 21574050 60 23 330 2553
-0.62812173 2.3972712 0.56198102 483 21671190 62 23 327 2534
-0.6083076 2.3811889 0.5575754 484 21770310 62 23 353 2513
-0.58753115 2.3602114 0.55212092 486 21867070 75 23 349 2487
-0.56541908 2.3324189 0.54519784 402 21964930 54 23 328 2454
-0.54907161 2.3272808 0.54330975 434 22059950 64 23 320 2445
-0.52930129 2.3067846 0.53806502 477 22160230 73 23 364 2420
-0.51215023 2.2966304 0.535128 431 22254800 64 23 335 2406
-0.4934839 2.2787092 0.53051263 427 22355840 58 23 393 2384
-0.47666997 2.2682998 0.52757555 431 22450900 64 23 342 2370
-0.45961094 2.2558548 0.52421892 408 22549170 55 23 313 2354
-0.44196323 2.2394497 0.52002317 397 22646720 54 23 282 2334
-0.42416629 2.2209933 0.5154078 335 22743910 45 23 315 2312
-0.4064346 2.201442 0.51058263 313 22843950 53 23 308 2289
-0.39085293 2.1923449 0.50806516 321 22939800 54 23 275 2277
-0.37489948 2.1802492 0.50491834 318 23038500 54 23 277 2262
-0.35862818 2.1651475 0.50114214 289 23132800 49 23 266 2244
-0.34286535 2.1518595 0.49778551 283 23232340 48 23 273 2228
-0.32623956 2.1316957 0.49296036 272 23327620 46 23 299 2205
-0.31044456 2.1152787 0.48897436 260 23427990 44 23 279 2186
-0.29472682 2.0977807 0.48477858 238 23524120 40 23 303 2166
-0.28028113 2.0879219 0.48226109 236 23622490 40 23 320 2154
-0.26609236 2.0789351 0.47995341 235 23721550 40 23 309 2143
-0.25143048 2.0650005 0.4765968 268 23818110 45 23 321 2127
-0.23773959 2.0577636 0.47470868 295 23917300 50 23 299 2118
-0.22446764 2.0533524 0.47344995 302 24012140 51 23 305 2112
-0.21156155 2.0517733 0.47282058 322 24113600 74 23 309 2109
-0.19697428 2.0325973 0.46841502 289 24208170 66 23 343 2088
-0.18449879 2.0337675 0.46841502 317 24307990 72 23 281 2088
-0.16977549 2.0085576 0.4627507 297 24405220 68 23 270 2061
-0.15529156 1.9822695 0.45687661 260 24503730 59 23 261 2033
-0.14248635 1.9744086 0.45498851 269 24600370 61 23 290 2024
-0.12939319 1.9606121 0.45184165 257 24699530 59 23 285 2009
-0.11694723 1.9545373 0.45037314 275 24796750 63 23 298 2002
-0.10436842 1.9444788 0.44806546 279 24893410 64 23 255 1991
-0.091258332 1.9206672 0.44282073 204 24993650 47 23 264 1966
-0.079307273 1.9172834 0.44198158 229 25088340 52 23 267 1962
-0.067120433 1.9060086 0.43946409 219 25188950 50 23 276 1950
-0.055278637 1.901498 0.43841517 241 25284500 55 23 285 1945
-0.043286834 1.8881167 0.43547812 222 25384560 51 23 286 1931
-0.031666547 1.8863916 0.43505853 237 25480100 54 23 325 1929
-0.019891424 1.8689522 0.43128231 215 25579430 60 23 264 1911
-0.008377444 1.8602394 0.42939422 222 25676070 62 23 287 1902
0.0030297607 1.8524338 0.4277159 226 25774680 63 23 316 1894
0.014347757 1.8455362 0.42624739 225 25872020 63 23 306 1887
0.025619907 1.8415028 0.42540821 249 25969110 69 23 302 1883
0.036767531 1.8334905 0.4237299 245 26068610 68 23 271 1875
0.047668453 1.8195463 0.42079285 273 26163040 76 23 298 1861
0.058461431 1.8074925 0.41827539 253 26263350 70 23 294 1849
0.069292717 1.8002604 0.41680688 272 26357420 76 23 284 1842
0.08008033 1.7939405 0.41554815 280 26457830 78 23 281 1836
0.090255439 1.7768145 0.4119817 250 26553890 70 23 267 1819
0.10071717 1.7684176 0.41030341 245 26651930 68 23 258 1811
0.11053163 1.7511768 0.40673697 202 26749570 56 23 277 1794
0.12067304 1.7416865 0.40484887 200 26845380 56 23 288 1785
0.1304837 1.7292129 0.40233141 186 26944320 52 23 251 1773
0.14061868 1.7225323 0.40107268 197 27040360 55 23 262 1767
0.1502527 1.7109224 0.398765 197 27140470 55 23 272 1756
0.15993109 1.7012064 0.3968769 183 27235040 51 23 250 1747
0.1696894 1.6933825 0.39540836 180 27334730 50 23 271 1740
0.17956313 1.6874478 0.39435941 205 27429640 57 23 249 1735
0.18860981 1.6746539 0.39184195 185 27529200 55 23 263 1723
0.19819403 1.667639 0.39058322 170 27624600 51 23 253 1717
0.20794043 1.6625104 0.38974404 193 27723240 58 23 254 1713
0.21750486 1.6563556 0.38869512 198 27820100 59 23 260 1708
0.22633924 1.6453025 0.38659722 188 27917210 56 23 253 1698
0.23559988 1.6380754 0.38533849 169 28015300 50 23 305 1692
0.24478038 1.6307968 0.38407975 165 28110590 49 23 278 1686
0.25388044 1.6234673 0.38282102 169 28210870 50 23 259 1680
0.26289985 1.6160879 0.38156229 158 28305840 47 23 244 1674
0.2721625 1.6105875 0.38072312 168 28405980 50 23 282 1670
0.28069544 1.6011816 0.3790448 144 28502670 43 23 281 1662
0.28947115 1.5936563 0.37778607 165 28601610 49 23 261 1656
0.29816511 1.5860838 0.37652734 144 28697350 43 23 269 1650
0.30677706 1.5784647 0.37526861 167 28795580 50 23 260 1644
0.31530681 1.5707999 0.37400988 157 28893550 47 23 251 1638
0.32335907 1.561175 0.37233156 196 28990630 59 23 292 1630
0.33171189 1.5534233 0.37107283 189 29090220 56 23 259 1624
0.33998182 1.5456282 0.36981407 180 29184790 54 23 259 1618
0.34859881 1.5396978 0.36897492 201 29286070 60 23 281 1614
0.35671398 1.5318151 0.36771619 184 29380170 55 23 275 1608
0.36542594 1.5267442 0.36708683 176 29481460 53 23 256 1605
0.37362388 1.519725 0.36603788 147 29577340 44 23 308 1600
0.38174948 1.5126626 0.36498892 160 29674980 48 23 312 1595
0.3890698 1.5027179 0.36331061 189 29772390 56 23 253 1587
0.39703268 1.4955761 0.36226168 188 29869260 56 23 256 1582
0.40517846 1.4893372 0.36142251 167 29968600 50 23 254 1578
0.41273937 1.4811704 0.36016378 205 30066310 61 23 295 1572
0.41994798 1.4720268 0.35869527 188 30164530 56 23 284 1565
0.42842591 1.4675447 0.35827568 192 30260060 57 23 259 1563
0.4357489 1.4592656 0.35701695 191 30360300 57 23 263 1557
0.44298649 1.4509522 0.35575819 189 30453740 56 23 261 1551
0.45071936 1.4444722 0.35491905 209 30553970 62 23 251 1547
0.45779717 1.4360886 0.35366032 209 30650320 62 23 273 1541
0.46448725 1.4267427 0.35219178 200 30748930 65 23 274 1534
0.47200263 1.4201533 0.35135263 198 30846650 64 23 258 1530
0.48070765 1.4172304 0.35135263 201 30944060 65 23 292 1530
0.4884378 1.4114813 0.35072327 227 31042840 73 23 272 1527
0.49611554 1.4056909 0.3500939 191 31138980 62 23 264 1524
0.50440115 1.4017 0.34988409 200 31238990 65 23 281 1523
0.51232052 1.3967422 0.34946454 213 31333440 69 23 289 1521
0.51917362 1.3889915 0.34841558 208 31432520 67 23 276 1516
0.52525669 1.3793814 0.34694704 187 31528640 60 23 253 1509
0.53265238 1.3733968 0.34631768 200 31628420 65 23 258 1506
0.53820288 1.3628248 0.34463939 194 31723320 63 23 273 1498
0.54437155 1.3540517 0.34338063 192 31822800 62 23 275 1492
0.55230016 1.3497808 0.34317085 174 31921190 56 23 284 1491
0.55944687 1.3436576 0.34254149 170 32018760 55 23 270 1488
0.5676809 1.3401996 0.34254149 211 32116870 68 23 233 1488
0.57473534 1.3339963 0.34191212 210 32212610 68 23 265 1485
0.58095205 1.325965 0.34086317 197 32313070 64 23 286 1480
0.58748889 1.3188014 0.34002402 175 32407730 57 23 260 1476
0.59436232 1.3124987 0.33939466 189 32508020 61 23 274 1473
0.60118049 1.3061613 0.33876529 202 32603090 65 23 266 1470
0.60794342 1.2997898 0.3381359 190 32701650 61 23 295 1467
0.61465073 1.2933847 0.33750653 199 32798870 64 23 263 1464
0.62172669 1.287827 0.33708698 198 32896100 64 23 273 1462
0.62918729 1.2831097 0.33687717 207 32993520 67 23 252 1461
0.63661343 1.2783493 0.33666739 200 33090130 65 23 267 1460
0.64356446 1.2726731 0.3362478 154 33189100 50 23 257 1458
0.65136129 1.2687004 0.3362478 203 33284500 66 23 268 1458
0.65913361 1.2646798 0.3362478 170 33385550 55 23 283 1458
0.66596836 1.2588822 0.33582821 187 33478990 60 23 297 1456
0.67321849 1.2539103 0.33561844 185 33580220 60 23 276 1455
0.68043268 1.248897 0.33540866 171 33676390 55 23 315 1454
0.6871385 1.2429861 0.33498907 178 33775970 57 23 315 1452
0.69379741 1.23704 0.33456948 192 33872810 62 23 298 1450
0.70040929 1.2310591 0.33414993 175 33970670 57 23 304 1448
0.7079497 1.2267383 0.33414993 179 34067940 58 23 307 1448
0.7144773 1.2206827 0.33373034 194 34163410 63 23 278 1446
0.72195381 1.2162758 0.33373034 189 34263890 61 23 261 1446
0.7283963 1.2101467 0.33331075 177 34359930 57 23 285 1444
0.73529935 1.2048194 0.33310097 196 34460090 63 23 301 1443
0.74216443 1.1994531 0.33289117 202 34555430 65 23 275 1442
0.74847263 1.1932192 0.33247161 210 34654120 68 23 281 1440
0.75577998 1.1886042 0.33247161 172 34750230 56 23 305 1440
0.76253003 1.183122 0.3322618 214 34849170 69 23 301 1439
0.76870728 1.1767828 0.33184224 198 34946190 64 23 281 1437
0.77591342 1.172044 0.33184224 199 35043780 64 23 300 1437
0.7814585 1.1648237 0.33121288 187 35142410 60 23 290 1434
0.78859097 1.1600068 0.33121288 218 35238350 70 23 293 1434
0.79458606 1.1535348 0.33079329 211 35339620 68 23 258 1432
0.80053145 1.147033 0.3303737 169 35433360 55 23 301 1430
0.80642694 1.1405016 0.32995412 230 35533650 74 23 296 1428
0.81340975 1.135532 0.32995412 210 35629130 68 23 271 1428
0.81978846 1.1297277 0.32974434 217 35728490 70 23 308 1427
0.82728326 1.1254647 0.32995412 209 35826010 68 23 289 1428
0.83242393 1.118013 0.32932475 195 35923620 63 23 321 1425
0.83926821 1.1128843 0.32932475 226 36021860 73 23 315 1425
0.84430271 1.1053809 0.32869539 201 36119370 65 23 285 1422
0.84987432 1.0986317 0.32827583 209 36218520 68 23 298 1420
0.85599715 1.0926261 0.32806602 200 36315000 65 23 295 1419
0.86268526 1.0873532 0.32806602 195 36415070 63 23 257 1419
0.8693409 1.0820394 0.32806602 206 36508850 67 23 287 1419
0.87596375 1.0766848 0.32806602 182 36608720 59 23 299 1419
0.88317466 1.072045 0.32827583 197 36704360 64 23 289 1420
0.89098716 1.0681086 0.32869539 186 36804050 60 23 256 1422
0.89941478 1.0648642 0.32932475 161 36901210 52 23 303 1425
0.90593171 1.0593255 0.32932475 221 36998350 71 23 307 1425
0.91305387 1.0544865 0.32953456 186 37096640 60 23 278 1426
0.92015076 1.0496001 0.32974434 190 37192630 61 23 284 1427
0.92722195 1.0446663 0.32995412 203 37292210 66 23 288 1428
0.93296164 1.0382295 0.32974434 186 37388200 60 23 293 1427
0.93931454 1.0324854 0.32974434 229 37488870 74 23 323 1427
0.94497037 1.0259826 0.32953456 199 37584860 64 23 280 1426
0.95058179 1.0194494 0.32932475 182 37684500 59 23 299 1425
0.95614862 1.0128858 0.32911497 196 37780800 63 23 292 1424
0.9616707 1.0062925 0.32890519 198 37879540 64 23 282 1423
0.96714795 0.99966943 0.32869539 199 37976060 64 23 297 1422
0.97394705 0.99441546 0.32890519 210 38074020 68 23 278 1423
0.98140585 0.98981065 0.32932475 215 38171880 69 23 281 1425
0.98884475 0.98515171 0.32974434 193 38268130 62 23 293 1427
0.99556714 0.97975224 0.32995412 187 38367140 60 23 299 1428
1.0015601 0.97362506 0.32995412 203 38462020 66 23 340 1428
1.0089245 0.96881706 0.3303737 215 38562110 69 23 345 1430
1.0134325 0.96126109 0.32995412 161 38657330 52 23 309 1428
1.0214503 0.95703226 0.33058351 175 38757090 57 23 276 1431
1.0280201 0.95141155 0.33079329 207 38854110 67 23 318 1432
1.0374438 0.94838774 0.33184224 225 38952240 73 23 285 1437
1.0410682 0.94003642 0.33121288 201 39049210 65 23 307 1434
1.0490038 0.93558532 0.33184224 202 39146390 65 23 300 1437
1.0554577 0.9297781 0.33205202 181 39244730 58 23 323 1438
1.0633539 0.92521191 0.33268139 210 39340980 68 23 286 1441
1.0697519 0.91930789 0.33289117 204 39440480 66 23 303 1442
1.0768622 0.91399348 0.33331075 204 39535580 66 23 295 1444
1.0817013 0.90673995 0.33310097 171 39635140 55 23 292 1443
1.0872446 0.90008569 0.33310097 164 39730750 53 23 265 1443
1.0942597 0.89463669 0.33352056 179 39829960 58 23 270 1445
1.1004887 0.88852054 0.33373034 152 39925730 49 23 294 1446
1.1066837 0.88236159 0.33394012 168 40023990 54 23 284 1447
1.1159153 0.8785823 0.33498907 216 40122350 70 23 309 1452
1.1212851 0.87171865 0.33498907 237 40219550 77 23 271 1452
1.1297129 0.86720651 0.33582821 183 40318180 59 23 273 1456
1.1357914 0.86084968 0.33603802 169 40413840 55 23 250 1457
1.1441811 0.85621053 0.33687717 202 40513410 65 23 305 1461
1.1517708 0.85091901 0.33750653 197 40608050 64 23 281 1464
1.1569703 0.84383589 0.33750653 223 40707560 72 23 259 1464
1.164505 0.83843708 0.3381359 192 40803200 62 23 292 1467
1.1704241 0.8318432 0.33834571 198 40902420 64 23 270 1468
1.177106 0.82577044 0.33876529 183 40999750 59 23 275 1470
1.1845607 0.82020438 0.33939466 177 41098110 57 23 312 1473
1.192798 0.81513017 0.3402338 199 41195960 64 23 263 1477
1.2010176 0.80998576 0.34107295 212 41292540 68 23 278 1481
1.2067785 0.80314368 0.34128276 174 41391810 56 23 293 1482
1.2157676 0.79841119 0.34233171 208 41486350 67 23 251 1487
1.2231039 0.7925337 0.34296107 208 41587940 67 23 301 1490
1.2295904 0.78606874 0.34338063 215 41682200 69 23 302 1492
1.235217 0.77903163 0.34359044 195 41782880 63 23 297 1493
1.2432927 0.77350682 0.34442958 220 41878600 71 23 246 1497
1.250514 0.76740003 0.34505895 185 41977670 60 23 281 1500
1.2577072 0.76123369 0.34568831 196 42074820 63 23 232 1503
1.2648717 0.75500786 0.34631768 191 42172060 62 23 229 1506
1.272007 0.74872273 0.34694704 202 42269910 65 23 280 1509
1.2791127 0.74237847 0.34757644 187 42366690 60 23 284 1512
1.2870365 0.73646146 0.34841558 229 42465300 74 23 261 1516
1.2932335 0.72951275 0.34883517 211 42561290 68 23 280 1518
1.30281 0.72441941 0.3500939 204 42661380 66 23 260 1524
1.3106585 0.71829456 0.35093305 173 42755770 56 23 287 1528
1.3184807 0.71210057 0.35177222 177 42856280 57 23 291 1532
1.3280015 0.70675784 0.35303095 193 42952030 58 23 290 1538
1.3340442 0.69950569 0.35345054 183 43049810 55 23 280 1540
1.340916 0.6926555 0.3540799 187 43146070 56 23 244 1543
1.347754 0.68574721 0.35470927 221 43242560 66 23 278 1546
1.3545575 0.67878103 0.35533863 203 43341550 61 23 271 1549
1.3613262 0.67175716 0.355968 214 43437620 64 23 277 1552
1.3689387 0.66510379 0.35680714 191 43537830 57 23 267 1556
1.3765206 0.65838224 0.35764632 177 43632550 53 23 282 1560
1.3876085 0.65326148 0.35932463 190 43732460 57 23 268 1568
1.3977983 0.64761758 0.36079314 178 43828220 53 23 276 1575
1.4061923 0.64106041 0.3618421 180 43928080 54 23 267 1580
1.4163418 0.63522625 0.36331061 207 44025380 62 23 290 1587
1.4237896 0.6281054 0.36414978 191 44123190 57 23 269 1591
1.4321001 0.62130696 0.36519873 194 44220530 58 23 256 1596
1.4403805 0.61443001 0.36624765 193 44317210 58 23 258 1601
1.4477288 0.60709596 0.36708683 207 44415150 62 23 281 1605
1.4568486 0.60044152 0.36834556 196 44510860 59 23 284 1611
1.4650351 0.59333009 0.36939451 182 44610200 54 23 272 1616
1.473189 0.58614075 0.37044346 184 44705020 55 23 258 1621
1.4813097 0.57887357 0.37149239 194 44805180 58 23 296 1626
1.4921341 0.57258195 0.3731707 194 44900320 58 23 297 1634
1.5020221 0.56583369 0.37463924 170 44999460 51 23 265 1641
1.5109665 0.55864578 0.37589797 147 45097300 44 23 272 1647
1.519879 0.55136931 0.3771567 167 45194530 50 23 288 1653
1.5296798 0.54433298 0.37862524 170 45292150 51 23 320 1660
1.5376054 0.53655124 0.37967417 166 45388160 50 23 276 1665
1.545493 0.52869272 0.38072312 163 45487620 49 23 293 1670
1.5551953 0.5213806 0.38219166 160 45583460 48 23 291 1677
1.5630085 0.51335752 0.38324058 168 45683610 50 23 255 1682
1.5717123 0.50555831 0.38449934 208 45778190 62 23 286 1688
1.5794466 0.49737707 0.38554826 183 45879260 55 23 282 1693
1.5899419 0.48998606 0.38722658 161 45975170 48 23 274 1701
1.5985339 0.48191893 0.38848531 179 46073330 53 23 277 1707
1.6080241 0.47404197 0.38995385 174 46169970 52 23 285 1714
1.615599 0.46552372 0.3910028 171 46267440 51 23 263 1719
1.6287756 0.45852444 0.39331049 196 46365980 55 23 270 1730
1.6362712 0.44982138 0.39435941 193 46462990 54 23 274 1735
1.6484419 0.44231421 0.39645731 225 46562620 63 23 280 1745
1.6558533 0.43343288 0.39750627 182 46657790 51 23 269 1750
1.6689007 0.42593232 0.39981395 200 46757880 56 23 264 1761
1.6771748 0.41710433 0.40107268 200 46852410 56 23 260 1767
1.6882534 0.40888345 0.40296078 201 46952430 56 23 281 1776
1.6983424 0.40031716 0.4046391 185 47048150 51 23 265 1784
1.7112482 0.39230004 0.40694678 185 47146780 51 23 286 1795
1.7212565 0.38349944 0.4086251 201 47244700 56 23 271 1803
1.733132 0.37500569 0.41072297 220 47342780 61 23 281 1813
1.7440109 0.36617899 0.4126111 211 47441600 59 23 283 1822
1.7567624 0.35762429 0.41491875 209 47537540 58 23 277 1833
1.7637193 0.34778762 0.4159677 236 47637300 66 23 298 1838
1.7783039 0.33935085 0.41869497 224 47732190 62 23 287 1851
1.7861209 0.32950151 0.4199537 221 47833250 61 23 309 1857
1.8006212 0.32077429 0.42268097 248 47929240 69 23 292 1870
1.8102635 0.31105003 0.42435929 205 48028760 57 23 319 1878
1.8227476 0.30170056 0.42666695 208 48125120 58 23 278 1889
1.8313228 0.29159179 0.42813548 198 48222280 55 23 319 1896
1.8437079 0.28198314 0.43044317 204 48320440 57 23 305 1907
1.8550763 0.27209082 0.43254107 224 48416230 62 23 285 1917
1.8654243 0.26193294 0.43442917 219 48515300 50 23 319 1926
1.8786241 0.25205037 0.43694663 240 48610990 55 23 285 1938
1.8908025 0.24189085 0.43925431 244 48711570 56 23 300 1949
1.9058381 0.23194772 0.44219136 281 48807180 64 23 312 1963
1.9188801 0.22160342 0.44470882 287 48907530 66 23 296 1975
1.9299226 0.21089402 0.44680673 276 49002710 63 23 307 1985
1.9428506 0.20025922 0.44932419 288 49101410 66 23 275 1997
1.9547471 0.18937874 0.45163187 287 49197520 66 23 301 2008
1.9636619 0.17809284 0.45331019 259 49295180 59 23 293 2016
1.9803052 0.16736862 0.45666683 285 49393240 65 23 282 2032
1.9968902 0.1564468 0.46002343 283 49490360 65 23 303 2048
2.0153654 0.14546978 0.46379966 299 49589950 68 23 277 2066
2.0259759 0.13375148 0.46589753 283 49685310 65 23 298 2076
2.0423739 0.1222628 0.46925417 284 49785780 65 23 302 2092
2.0567539 0.11047174 0.47219121 289 49880240 66 23 370 2106
2.0730188 0.098602951 0.47554785 307 49980120 52 23 305 2122
2.0755384 0.085963465 0.47596744 279 50076240 47 23 304 2124
2.0926378 0.073823161 0.47953385 288 50174530 49 23 336 2141
2.1057565 0.061359845 0.48226109 304 50271660 52 23 310 2154
2.1168456 0.048692103 0.48456877 322 50369200 55 23 309 2165
2.1239476 0.035822179 0.48603731 353 50467160 60 23 336 2172
2.1339045 0.022900231 0.48813519 538 50563810 101 23 392 2182
2.1320493 0.0097962022 0.48771563 469 50661990 90 23 309 2180
2.1183808 -0.0032734475 0.48477858 314 50757780 53 23 332 2166
2.1232095 -0.016306002 0.48582751 339 50858440 58 23 334 2171
2.1015608 -0.029049788 0.48121217 284 50953330 48 23 321 2149
2.0964551 -0.041849714 0.48016322 283 51053780 48 23 341 2144
2.0854073 -0.054438733 0.47785553 270 51149680 46 23 312 2133
2.0850339 -0.067233525 0.47785553 282 51248100 48 23 304 2133
2.0767658 -0.079730719 0.47617722 286 51345570 48 23 341 2125
2.0693998 -0.09217187 0.47470868 302 51443010 51 23 317 2118
2.0678186 -0.10481887 0.4744989 351 51542160 60 23 308 2117
2.0515175 -0.11662701 0.47114226 317 51638260 72 23 301 2101
2.0429564 -0.12872589 0.46946397 395 51738370 90 23 319 2093
2.0362754 -0.14085779 0.46820521 359 51833650 82 23 291 2087
2.0246472 -0.15254845 0.46589753 341 51933170 78 23 299 2076
2.0149021 -0.16425936 0.46400943 363 52028960 83 23 281 2067
2.0021675 -0.17560211 0.46149197 358 52127820 82 23 285 2055
1.9903436 -0.18688555 0.45918429 326 52223490 75 23 266 2044
1.9745651 -0.19764364 0.45603746 304 52322030 69 23 283 2029
1.9635918 -0.20872867 0.45393956 313 52418810 72 23 317 2019
1.9476988 -0.21914321 0.45079273 284 52515380 65 23 280 2004
1.9375784 -0.23005837 0.4489046 260 52614690 59 23 285 1995
1.9254572 -0.24061646 0.44659692 246 52711050 56 23 301 1984
1.9152188 -0.25128758 0.44470882 241 52812340 55 23 271 1975
1.9097661 -0.26250452 0.44386968 267 52906650 61 23 276 1971
1.892633 -0.27200302 0.44051304 213 53005820 49 23 282 1955
1.8831922 -0.28245607 0.43883473 227 53102250 52 23 308 1947
1.8678977 -0.29190186 0.43589768 218 53201570 50 23 288 1933
1.85835 -0.3021079 0.43421936 215 53298590 49 23 325 1925
1.8506761 -0.3125321 0.43296063 194 53396170 54 23 306 1919
1.8439076 -0.32304153 0.43191168 214 53494340 60 23 284 1914
1.8380421 -0.33365366 0.43107253 206 53591570 57 23 319 1910
1.8340381 -0.34456572 0.43065295 237 53690440 66 23 300 1908
1.8280497 -0.3550697 0.4298138 232 53785650 65 23 275 1904
1.8210427 -0.36532158 0.42876485 224 53884770 62 23 294 1899
1.8120637 -0.37510586 0.42729634 192 53979160 53 23 304 1892
1.8020771 -0.38459039 0.42561802 206 54079540 57 23 280 1884
1.7929976 -0.3941758 0.42414948 207 54175780 58 23 298 1877
1.782915 -0.40344921 0.42247117 178 54275470 49 23 254 1869
1.7718338 -0.41239282 0.42058307 219 54372760 61 23 284 1860
1.7645146 -0.4221229 0.41953412 222 54470970 62 23 296 1855
1.7533443 -0.43084824 0.41764602 216 54569480 60 23 269 1846
1.7411853 -0.43921402 0.41554815 259 54664430 72 23 268 1836
1.7384576 -0.44988945 0.41554815 233 54762960 65 23 261 1836
1.7309383 -0.45929766 0.41449919 239 54858300 66 23 277 1831
1.7214817 -0.46811888 0.41303065 219 54959060 61 23 290 1824
1.7129245 -0.47710302 0.41177192 225 55054410 63 23 291 1818
1.704322 -0.48599985 0.41051319 244 55154740 68 23 287 1812
1.6975527 -0.49535552 0.40967402 220 55250200 61 23 290 1808
1.6879214 -0.50380963 0.40820551 239 55348920 66 23 262 1801
1.6810567 -0.51301831 0.40736637 264 55445680 74 23 260 1797
1.6722757 -0.52158087 0.4061076 240 55542670 67 23 285 1791
1.6662483 -0.53094357 0.40547824 252 55641540 70 23 293 1788
1.6555192 -0.53874266 0.40379992 213 55736070 59 23 273 1780
1.6484699 -0.54766041 0.40296078 242 55836410 67 23 261 1776
1.6395212 -0.55588543 0.40170205 239 55931580 66 23 264 1770
1.6314582 -0.56434029 0.40065309 195 56032370 54 23 292 1765
1.6242756 -0.5730418 0.39981395 246 56128330 68 23 251 1761
1.617968 -0.58200663 0.39918458 206 56227620 57 23 264 1758
1.6097752 -0.590244 0.39813563 224 56325400 62 23 287 1753
1.6024585 -0.59874427 0.39729646 229 56423690 64 23 262 1749
1.5960124 -0.6075241 0.39666709 230 56521580 64 23 270 1746
1.5895189 -0.61624748 0.39603773 236 56617170 66 23 304 1743
1.5802494 -0.62383908 0.394779 276 56715540 77 23 274 1737
1.5745769 -0.63279581 0.39435941 241 56811690 67 23 283 1735
1.5670434 -0.64096755 0.39352027 252 56912030 70 23 293 1731
1.561275 -0.64982069 0.39310068 254 57005770 71 23 318 1729
1.5527551 -0.6574856 0.39205173 244 57107440 73 23 282 1724
1.5450984 -0.66545659 0.39121258 213 57203580 64 23 290 1720
1.541882 -0.67531615 0.39142236 231 57303860 69 23 309 1721
1.5341353 -0.68317604 0.39058322 210 57400460 63 23 280 1717
1.5299146 -0.69257647 0.39058322 218 57497870 65 23 272 1717
1.5229706 -0.70072687 0.38995385 223 57596430 67 23 292 1714
1.513326 -0.70757794 0.38869512 201 57692170 60 23 283 1708
1.505422 -0.71517479 0.38785595 190 57791740 57 23 264 1704
1.4992436 -0.7235499 0.38743639 188 57887400 56 23 264 1702
1.4938974 -0.73230582 0.38722658 227 57986890 68 23 277 1701
1.4849979 -0.7392832 0.38617763 204 58081970 61 23 259 1696
1.4786879 -0.74750024 0.38575807 198 58182690 59 23 291 1694
1.4723331 -0.75566775 0.38533849 216 58279180 65 23 309 1692
1.4676687 -0.7646876 0.38533849 208 58377310 62 23 288 1692
1.4603549 -0.77230942 0.38470912 203 58474310 61 23 290 1689
1.4538648 -0.78033209 0.38428953 208 58572740 62 23 314 1687
1.4481905 -0.78877115 0.38407975 205 58670330 61 23 251 1686
1.4407549 -0.79622555 0.38345039 179 58767340 53 23 304 1683
1.4332826 -0.80361837 0.38282102 192 58866150 57 23 300 1680
1.4257739 -0.81094962 0.38219166 196 58961950 59 23 304 1677
1.4199238 -0.81919479 0.38198185 230 59062710 69 23 249 1676
1.4114934 -0.82591945 0.38114271 199 59157000 59 23 302 1672
1.4030341 -0.83257157 0.38030353 200 59256510 60 23 293 1668
1.3970609 -0.84066129 0.38009375 158 59352600 47 23 289 1667
1.3910413 -0.84870911 0.37988397 189 59450010 56 23 338 1666
1.3841437 -0.85620105 0.37946439 180 59547480 54 23 305 1664
1.378864 -0.86467785 0.37946439 187 59644640 56 23 303 1664
1.3743582 -0.87364602 0.37967417 195 59743880 58 23 273 1665
1.3681493 -0.88153356 0.37946439 198 59840390 59 23 298 1664
1.3627145 -0.88991177 0.37946439 204 59939750 61 23 294 1664
1.3580444 -0.89879543 0.37967417 182 60035300 54 23 278 1665
1.3525039 -0.90711129 0.37967417 191 60135210 57 23 303 1665
1.3452942 -0.9142952 0.37925461 204 60230950 61 23 306 1663
1.3380474 -0.92142481 0.37883502 169 60329490 50 23 291 1661
1.3307638 -0.92849994 0.37841544 185 60426700 55 23 305 1659
1.3226451 -0.93495667 0.37778607 185 60524810 55 23 289 1656
1.316088 -0.94248605 0.37757629 181 60621700 54 23 295 1655
1.3086964 -0.94939667 0.3771567 207 60718210 62 23 318 1653
1.3028463 -0.95740885 0.3771567 170 60816250 51 23 274 1653
1.2969472 -0.9653849 0.3771567 176 60913370 53 23 295 1653
1.2909994 -0.97332466 0.3771567 176 61012960 53 23 295 1653
1.2850028 -0.98122776 0.3771567 169 61109000 50 23 291 1653
1.2781841 -0.98849642 0.37694693 184 61208600 55 23 292 1652
1.2720947 -0.99632061 0.37694693 162 61304470 48 23 284 1652
1.2644243 -1.0028933 0.37652734 206 61403130 62 23 293 1650
1.2582469 -1.0106329 0.37652734 190 61499820 57 23 303 1650
1.252022 -1.0183343 0.37652734 198 61596830 59 23 296 1650
1.2449949 -1.0253764 0.37631756 210 61695450 63 23 286 1649
1.2394313 -1.0336218 0.37652734 207 61791440 62 23 295 1650
1.2338133 -1.0418376 0.37673712 188 61891470 56 23 314 1651
1.2273976 -1.0493885 0.37673712 197 61986760 59 23 328 1651
1.2209355 -1.0568999 0.37673712 175 62087680 52 23 309 1651
1.2136916 -1.0637276 0.37652734 178 62183350 53 23 292 1650
1.2071419 -1.0711547 0.37652734 186 62283860 56 23 317 1650
1.1998188 -1.0778886 0.37631756 169 62379350 50 23 339 1649
1.1924585 -1.084573 0.37610775 172 62477310 51 23 296 1648
1.1865011 -1.0925311 0.37631756 187 62575170 56 23 310 1649
1.1804909 -1.1004568 0.37652734 199 62672440 59 23 304 1650
1.1737163 -1.1076795 0.37652734 200 62771180 60 23 302 1650
1.1676052 -1.1155353 0.37673712 189 62867490 56 23 338 1651
1.1614418 -1.1233578 0.37694693 206 62968120 62 23 274 1652
1.1552262 -1.1311466 0.3771567 198 63062690 59 23 306 1653
1.1482639 -1.1382136 0.3771567 173 63162200 52 23 276 1653
1.1426399 -1.1466218 0.37757629 163 63257940 49 23 300 1655
1.1362693 -1.1543075 0.37778607 158 63357900 47 23 263 1656
1.1284831 -1.1605574 0.37757629 205 63455100 61 23 321 1655
1.1206628 -1.1667552 0.37736648 151 63553580 45 23 275 1654
1.1161768 -1.1764444 0.37820566 202 63651170 60 23 273 1658
1.1096065 -1.1839839 0.37841544 202 63749730 60 23 254 1659
1.1029856 -1.191487 0.37862524 192 63848830 57 23 309 1660
1.095654 -1.1982324 0.37862524 179 63945560 53 23 291 1660
1.0882812 -1.2049326 0.37862524 197 64045900 59 23 277 1660
1.0821704 -1.2130457 0.3790448 186 64140720 56 23 268 1662
1.0740598 -1.2189299 0.37883502 194 64240550 58 23 303 1661
1.0678455 -1.2269713 0.37925461 200 64336310 60 23 303 1663
1.0615727 -1.2349823 0.37967417 160 64435360 48 23 300 1665
1.0565087 -1.244452 0.38051334 160 64531850 48 23 286 1669
1.0501106 -1.2524086 0.3809329 165 64630580 49 23 266 1671
1.0461514 -1.2633438 0.38219166 169 64728590 50 23 286 1677
1.0402387 -1.2720082 0.38282102 166 64826440 50 23 248 1680
1.0342591 -1.2806475 0.38345039 155 64925550 46 23 216 1683
1.026992 -1.2877334 0.38366017 169 65022640 50 23 284 1684
1.0190712 -1.2940106 0.38366017 162 65122650 48 23 268 1684
1.0117129 -1.3010106 0.38386995 172 65216340 51 23 270 1685
1.0031149 -1.3064188 0.38366017 190 65316810 57 23 262 1684
0.99448872 -1.3117706 0.38345039 159 65412670 47 23 264 1683
0.98700768 -1.3186302 0.38366017 163 65511980 49 23 303 1684
0.98006159 -1.3262333 0.38407975 176 65608940 53 23 283 1686
0.97248238 -1.3330113 0.38428953 142 65707800 42 23 240 1687
0.96657306 -1.3421251 0.38512871 158 65806500 47 23 316 1691
0.9600212 -1.3504199 0.38575807 167 65902860 50 23 268 1694
0.95509064 -1.3610845 0.3870168 162 66001750 48 23 273 1700
0.94839329 -1.3693292 0.38764617 191 66096710 57 23 307 1703
0.94218296 -1.3783497 0.38848531 163 66195630 49 23 284 1707
0.93589759 -1.3873453 0.38932449 182 66290660 54 23 281 1711
0.9300797 -1.3971291 0.39037344 201 66392550 60 23 256 1716
0.92202705 -1.4036264 0.39058322 156 66488360 47 23 284 1717
0.91499454 -1.4117177 0.39121258 189 66587330 56 23 252 1720
0.90736997 -1.418952 0.39163217 181 66683640 54 23 246 1722
0.89864635 -1.4244927 0.39163217 163 66781130 49 23 290 1722
0.89092338 -1.4316393 0.39205173 204 66880050 61 23 270 1724
0.88365871 -1.4395777 0.39268109 218 66976790 65 23 262 1727
0.87480903 -1.4449726 0.39268109 181 67076400 54 23 297 1727
0.86793393 -1.4536695 0.39352027 206 67170680 57 23 247 1731
0.85999149 -1.460652 0.39393985 205 67270470 57 23 270 1733
0.85297918 -1.4692822 0.394779 199 67365730 55 23 251 1737
0.84394777 -1.4744883 0.394779 142 67465820 39 23 264 1737
0.83921492 -1.4872993 0.39666709 190 67563490 53 23 231 1746
0.83054918 -1.4932748 0.3968769 149 67662100 41 23 277 1747
0.8251363 -1.5051988 0.39855522 192 67758940 53 23 275 1755
0.81867743 -1.5153928 0.39981395 212 67856180 59 23 235 1761
0.81120425 -1.5238384 0.40065309 202 67954650 56 23 284 1765
