# .PCD v0.7 - Point Cloud Data file format
VERSION 0.7
FIELDS x y z intensity t reflectivity ring ambient range
SIZE 4 4 4 4 4 2 1 2 4
TYPE F F F F U U U U U
COUNT 1 1 1 1 1 1 1 1 1
WIDTH 813
HEIGHT 1
VIEWPOINT 0 0 0 1 0 0 0
POINTS 813
DATA ascii
-3.8687437 1.6632489 1.3777401 842 7225560 100 19 528 4421
-3.8488667 1.6827627 1.3743812 759 7320590 83 19 530 4410
-3.8358581 1.7051877 1.3734651 788 7421450 88 19 494 4407
-3.8175123 1.7251651 1.3707168 804 7516790 91 19 519 4398
-3.8007967 1.7457762 1.3685793 830 7617130 96 19 530 4391
-3.7831094 1.7658447 1.3661363 807 7713140 92 19 516 4383
-3.7670403 1.7865776 1.3643042 822 7810540 95 19 570 4377
-3.7517171 1.8075929 1.3627774 798 7909250 90 19 621 4372
-3.7371335 1.8289057 1.3615559 854 8005530 100 19 556 4368
-3.7232826 1.8505313 1.3606398 867 8104920 100 19 566 4365
-3.7042058 1.8694832 1.3578916 814 8199810 93 19 570 4356
-3.6850367 1.8882707 1.3551433 800 8299900 90 19 580 4347
-3.6691566 1.9086504 1.3536165 797 8394640 90 19 586 4342
-3.6540074 1.9293506 1.3523951 761 8493450 83 19 608 4338
-3.6421003 1.9517348 1.3523951 786 8590370 88 19 577 4338
-3.6258726 1.9717723 1.3508682 802 8688480 91 19 624 4333
-3.6028655 1.9880061 1.3468984 801 8785340 91 19 570 4320
-3.5864441 2.007751 1.3453716 769 8883490 85 19 587 4315
-3.5707445 2.0278394 1.3441502 715 8981950 75 19 566 4311
-3.553283 2.0468607 1.3423181 788 9078780 88 19 565 4305
-3.5373673 2.0667043 1.3410965 782 9178550 87 19 545 4301
-3.5164258 2.083519 1.338043 803 9272680 91 19 543 4291
-3.5003099 2.1030955 1.3368214 734 9373580 79 19 520 4287
-3.4800193 2.1200769 1.3340732 808 9468510 92 19 541 4278
-3.4628937 2.1388893 1.3325464 769 9566910 85 19 515 4273
-3.4480901 2.1590869 1.3319356 741 9664510 80 19 484 4271
-3.4307566 2.1776531 1.3304088 778 9761750 86 19 472 4266
-3.4085195 2.1929982 1.3270499 843 9859420 99 19 448 4255
-3.391808 2.2117918 1.3258284 823 9956430 95 19 511 4251
-3.3789675 2.2330866 1.3261338 821 10055500 94 19 488 4252
-3.3723242 2.2585442 1.3288821 789 10152140 88 19 503 4261
-3.363131 2.2824006 1.3307142 743 10251970 80 19 500 4267
-3.3459241 2.3008363 1.3294928 777 10346980 86 19 495 4263
-3.3286176 2.3191466 1.3282713 751 10446830 82 19 533 4259
-3.3042092 2.3323915 1.3243016 826 10543610 95 19 484 4246
-3.2820883 2.3470855 1.3212479 796 10641830 89 19 474 4236
-3.2737956 2.3716469 1.3236909 779 10738190 86 19 451 4244
-3.2599497 2.3922529 1.3239963 851 10836560 100 19 497 4245
-3.2398589 2.408236 1.3218588 835 10933710 97 19 493 4238
-3.2204556 2.4246352 1.3200265 864 11030580 100 19 508 4232
-3.2070327 2.4455042 1.3206372 877 11129700 100 19 508 4234
-3.1934745 2.4662995 1.3212479 829 11226080 96 19 526 4236
-3.1760306 2.4840887 1.3203319 760 11325820 83 19 501 4233
-3.1569955 2.5005748 1.3188051 761 11420160 83 19 486 4228
-3.1386209 2.5175164 1.3175837 727 11518650 78 19 466 4224
-3.1142426 2.529526 1.3139193 534 11615630 47 19 408 4212
-3.1074908 2.5558426 1.3175837 363 11713320 28 19 413 4224
-3.100533 2.5821714 1.3212479 138 11810810 10 19 369 4236
-3.0671546 2.5864203 1.3139193 47 11908520 3 19 338 4212
-0 0 0 9 12006870 0 19 310 0
-0.53261006 0.46188921 0.2533938 11 12103260 1 19 290 739
-0.52976596 0.46514854 0.2533938 8 12202940 0 19 316 739
-0 0 0 10 12296300 0 19 316 0
-0.53039896 0.47733557 0.25614208 8 12397450 0 19 316 748
-0.51829398 0.47226095 0.25217235 16 12491760 1 19 313 735
-0.53011054 0.48896298 0.25858498 10 12592250 1 19 282 756
-2.9490998 2.7454782 1.3194158 17 12689040 1 19 326 4230
-2.9446757 2.7752736 1.3249123 20 12786980 1 19 344 4248
-2.9317265 2.7972322 1.3267446 37 12884980 2 19 341 4254
-2.9021757 2.8032641 1.3212479 95 12981370 7 19 345 4236
-2.8930931 2.8290052 1.3249123 161 13080140 12 19 355 4248
-2.891927 2.862776 1.3322411 280 13175850 21 19 443 4272
-2.8473938 2.8535135 1.3200265 626 13276190 61 19 420 4232
-2.8358495 2.8770325 1.3227748 701 13371910 73 19 479 4241
-2.8201365 2.896425 1.3236909 691 13472340 71 19 448 4244
-2.8069334 2.9184773 1.3258284 699 13567750 73 19 476 4251
-2.7876611 2.9342649 1.3252177 671 13666770 69 19 460 4249
-2.766345 2.9478438 1.3236909 651 13763910 65 19 427 4244
-2.7546809 2.9717436 1.3267446 655 13862390 66 19 481 4254
-2.7363949 2.9885902 1.3267446 654 13959980 66 19 472 4254
-2.7199225 3.0074422 1.3276606 735 14057550 79 19 474 4257
-2.7058604 3.0290444 1.3297981 689 14156730 71 19 468 4264
-2.6928959 3.0520146 1.3325464 622 14252350 61 19 457 4273
-2.6791251 3.0742218 1.3349893 624 14352520 61 19 481 4281
-2.6608331 3.0913241 1.3352947 649 14447880 65 19 476 4282
-2.6393468 3.1046913 1.3340732 615 14548020 60 19 487 4278
-2.6257601 3.1273892 1.3368214 576 14644380 54 19 483 4287
-2.6156421 3.1544342 1.3414019 558 14744140 52 19 516 4302
-2.5980482 3.1726336 1.3423181 524 14840500 47 19 510 4305
-2.5761364 3.1855543 1.3410965 529 14938150 48 19 508 4301
-2.5589197 3.2042768 1.3423181 549 15037260 51 19 478 4305
-2.54039 3.2214127 1.3429288 578 15132920 54 19 526 4307
-2.5229173 3.2399442 1.3441502 616 15232360 60 19 492 4311
-2.5064738 3.2598917 1.3459824 563 15327980 53 19 546 4317
-2.4898806 3.2797592 1.3478146 592 15427840 56 19 563 4323
-2.4754231 3.3025928 1.3508682 613 15521950 59 19 489 4333
-2.4590788 3.3230765 1.3530058 605 15622290 58 19 498 4340
-2.4363947 3.3350277 1.3517842 628 15718380 62 19 560 4336
-2.4164426 3.3506863 1.3520896 611 15817710 59 19 544 4337
-2.4013627 3.3732059 1.3551433 656 15914050 66 19 540 4347
-2.3877404 3.3980031 1.359113 705 16012190 74 19 521 4360
-2.3663027 3.4118078 1.3588076 630 16109660 62 19 532 4359
-2.3453238 3.4262631 1.3588076 634 16206420 63 19 499 4359
-2.329056 3.4476891 1.3615559 589 16305540 56 19 516 4368
-2.3131421 3.4698365 1.3646095 674 16401040 69 19 456 4378
-2.2959967 3.4903274 1.3670524 622 16500860 61 19 508 4386
-2.2817988 3.5155296 1.3713275 648 16595000 65 19 442 4400
-2.2642951 3.5358782 1.3737704 683 16695220 70 19 423 4408
-2.2461188 3.5553393 1.3759079 616 16791080 60 19 497 4415
-2.2277887 3.5747101 1.3780454 689 16890610 74 19 462 4422
-2.2108021 3.5964229 1.3810991 679 16987980 72 19 473 4432
-2.1901751 3.6123629 1.3820152 645 17085460 66 19 450 4435
-2.172858 3.6339047 1.3850688 687 17183550 73 19 460 4445
-2.1582627 3.6602905 1.3899547 705 17279870 76 19 465 4461
-2.1415095 3.683341 1.3936189 711 17380140 77 19 477 4473
-2.0947039 3.6542866 1.3780454 366 17474770 29 19 398 4422
-2.0473988 3.6231403 1.3618612 338 17574580 26 19 440 4369
-1.9968468 3.5848987 1.3432341 349 17670570 27 19 441 4308
-1.9376714 3.5294838 1.3184997 367 17770110 28 19 437 4227
-1.887414 3.4885528 1.2992618 397 17866680 29 19 425 4164
-1.8296642 3.4320176 1.2745274 375 17964360 28 19 469 4083
-1.7833149 3.3951364 1.2571218 358 18062530 27 19 404 4026
-1.7462463 3.3747287 1.2458234 415 18159820 31 19 392 3989
-1.6943508 3.3243067 1.2238373 378 18258650 28 19 422 3917
-1.6461335 3.2793334 1.2039887 367 18353870 27 19 432 3852
-1.6006444 3.238163 1.1856668 397 18453950 30 19 412 3792
-1.5553063 3.1957037 1.1670398 392 18548790 30 19 434 3731
-1.5113741 3.1545293 1.1490233 405 18648780 30 19 400 3672
-1.4736975 3.1249933 1.1352819 384 18744700 29 19 416 3627
-1.4292194 3.0795708 1.116044 401 18843380 31 19 420 3564
-1.3972321 3.0597031 1.1059672 457 18940430 39 19 428 3531
-1.3600746 3.0274017 1.0916151 435 19037930 36 19 418 3484
-1.3222113 2.9921484 1.0763469 458 19135480 41 19 429 3434
-1.286352 2.9600389 1.0623002 394 19232310 31 19 417 3388
-1.2554315 2.9381094 1.0519179 397 19331320 31 19 449 3354
-1.2203994 2.9053798 1.0378711 389 19427120 31 19 437 3308
-1.1858166 2.8723323 1.0238245 419 19527800 34 19 399 3262
-1.1527612 2.8416181 1.0106939 458 19621660 42 19 409 3219
-1.1233041 2.8185675 1.0003115 407 19722310 33 19 430 3185
-1.0941739 2.7952638 0.9899292 381 19818190 31 19 451 3151
-1.0646882 2.7699323 0.97893614 394 19916810 32 19 487 3115
-1.0355551 2.7443452 0.96794307 468 20013390 44 19 433 3079
-1.0077698 2.7211847 0.95786607 457 20110710 45 19 397 3046
-0.97998255 2.696893 0.94748378 452 20208200 44 19 372 3012
-0.95381224 2.675951 0.93832284 495 20305110 50 19 409 2982
-0.92604846 2.6493979 0.92732978 423 20404770 37 19 412 2946
-0.89926511 2.6244073 0.91694748 486 20499990 49 19 456 2912
-0.87343085 2.6009941 0.90717584 465 20600400 46 19 481 2880
-0.84970623 2.5827899 0.89923644 460 20695440 51 19 463 2854
-0.82740813 2.5680184 0.8925184 460 20795710 51 19 441 2832
-0.80331516 2.5467155 0.88366288 452 20892860 50 19 415 2803
-0.78148443 2.5315826 0.8769449 435 20990960 48 19 450 2781
-0.75738817 2.5080755 0.86747867 443 21088400 49 19 452 2750
-0.73388028 2.4852822 0.85831779 492 21184640 56 19 436 2720
-0.71200359 2.4668694 0.85068369 477 21283020 54 19 413 2695
-0.69012183 2.4473665 0.84274429 437 21378730 55 19 446 2669
-0.67002624 2.4331963 0.83663702 453 21478580 58 19 489 2649
-0.64914006 2.4151945 0.82930827 453 21573690 58 19 431 2625
-0.62922633 2.3997917 0.82289571 471 21673250 61 19 460 2604
-0.61094433 2.3897707 0.81831521 524 21769620 71 19 400 2589
-0.59004086 2.36853 0.81007046 473 21868930 61 19 382 2562
-0.56874621 2.3443477 0.80090952 406 21964090 46 19 410 2532
-0.54996419 2.3292608 0.79480231 451 22061900 57 19 358 2512
-0.5316025 2.3149602 0.78900039 443 22159670 67 19 423 2493
-0.51260537 2.2968056 0.78197706 482 22256310 75 19 408 2470
-0.49466023 2.282228 0.77617514 409 22356540 56 19 404 2451
-0.47769952 2.2712443 0.7715947 406 22451210 55 19 421 2436
-0.46089232 2.2601388 0.76701427 396 22551070 54 19 404 2421
-0.44201854 2.237704 0.75876945 342 22645690 46 19 415 2394
-0.42397568 2.2179294 0.75144076 292 22745730 40 19 425 2370
-0.40827549 2.2092538 0.74777639 330 22843010 45 19 393 2358
-0.39085144 2.1901588 0.74075305 304 22941570 41 19 388 2335
-0.3725425 2.1643658 0.73159218 295 23037560 40 19 365 2305
-0.35722277 2.1543999 0.72762245 289 23134570 49 19 370 2292
-0.34083489 2.1368058 0.72120982 294 23232170 50 19 355 2271
-0.32569006 2.1256807 0.71693474 311 23328710 53 19 314 2257
-0.30999956 2.1097403 0.71113282 273 23429000 47 19 313 2238
-0.29584941 2.103117 0.70838457 291 23523860 50 19 355 2229
-0.28115502 2.0916812 0.70410949 260 23624120 44 19 365 2215
-0.26685551 2.0820339 0.70044512 296 23720110 51 19 370 2203
-0.25059947 2.0552773 0.69128424 229 23820000 39 19 343 2173
-0.23798381 2.0567763 0.69128424 304 23916110 52 19 403 2173
-0.22410813 2.0468395 0.68761992 290 24013980 50 19 423 2161
-0.21056028 2.0387049 0.68456626 281 24112260 48 19 406 2151
-0.19712073 2.0304813 0.68151265 271 24209900 46 19 390 2141
-0.18300873 2.0136354 0.67571074 231 24307960 39 19 386 2122
-0.16911092 1.9966935 0.66990882 214 24405810 49 19 384 2103
-0.15617971 1.9891502 0.66716057 243 24504860 56 19 364 2094
-0.14313942 1.9786745 0.66349626 255 24599780 59 19 340 2082
-0.12997952 1.9643137 0.6586104 248 24701250 57 19 338 2066
-0.11728972 1.9546189 0.65525144 231 24795460 53 19 353 2055
-0.1046201 1.9429411 0.65128171 224 24895140 52 19 373 2042
-0.092144243 1.932133 0.64761734 233 24992190 54 19 375 2030
-0.079845168 1.9221967 0.64425838 233 25089930 54 19 372 2019
-0.067534134 1.9083762 0.63967794 201 25187780 46 19 342 2004
-0.05568077 1.9039956 0.63815111 244 25286050 56 19 377 1999
-0.043838385 1.8976377 0.63601357 247 25384390 57 19 370 1992
-0.031992018 1.8864459 0.63234919 258 25480330 59 19 403 1980
-0.020273672 1.8742285 0.62837946 227 25580420 52 19 349 1967
-0.0087321494 1.8666998 0.62593657 228 25675050 52 19 378 1959
0.0027155119 1.8581481 0.62318832 234 25776050 54 19 385 1950
0.014051352 1.8485743 0.62013471 238 25870660 55 19 355 1940
0.025096325 1.8256016 0.61280596 200 25970570 56 19 365 1916
0.036315769 1.8263652 0.61311132 226 26067290 63 19 385 1917
0.047160324 1.8118291 0.60853088 210 26164550 59 19 360 1902
0.058276609 1.8115056 0.60853088 236 26262460 66 19 387 1902
0.068711355 1.7930342 0.60272902 215 26358520 60 19 390 1883
0.079670325 1.7916275 0.60242367 239 26458090 67 19 371 1882
0.09014032 1.7806433 0.59906465 231 26553680 65 19 364 1871
0.10063833 1.7724508 0.59662175 222 26653290 62 19 352 1863
0.11103921 1.7641966 0.59417886 220 26748000 62 19 398 1855
0.12095305 1.7501819 0.58990377 183 26846640 51 19 389 1841
0.13091138 1.7389611 0.58654475 172 26942850 48 19 356 1830
0.14088975 1.7295828 0.5837965 192 27041640 54 19 359 1821
0.15067559 1.7191991 0.5807429 185 27139110 52 19 381 1811
0.16051579 1.7106571 0.5783 191 27236370 54 19 339 1803
0.17016281 1.7011118 0.57555169 179 27334110 50 19 357 1794
0.17999832 1.6943537 0.5737195 176 27430100 49 19 325 1788
0.18944037 1.6847001 0.57097125 184 27529530 52 19 350 1779
0.19843635 1.6721578 0.56730688 178 27623750 50 19 339 1767
0.2079892 1.6652387 0.56547475 195 27724520 55 19 362 1761
0.21684933 1.6535444 0.56211573 191 27818270 54 19 340 1750
0.22596037 1.644635 0.55967283 194 27918620 54 19 342 1742
0.23456639 1.6328481 0.55631381 194 28013350 54 19 350 1731
0.24387883 1.626669 0.55478704 193 28112020 58 19 358 1726
0.25283191 1.6185554 0.5526495 158 28209050 48 19 426 1719
0.26215056 1.6132134 0.55142802 174 28307150 52 19 343 1715
0.27078226 1.6040618 0.54898512 138 28405300 41 19 326 1707
0.280783 1.6033083 0.54929048 200 28502750 60 19 345 1708
0.28976917 1.5968699 0.54776371 182 28601960 55 19 344 1703
0.29868698 1.5903817 0.54623687 175 28696100 53 19 365 1698
0.3075361 1.5838444 0.54471004 154 28796690 46 19 352 1693
0.31650275 1.5781925 0.54348862 176 28891580 53 19 344 1689
0.32502726 1.5706248 0.54165643 166 28991720 50 19 366 1683
0.33327293 1.5620809 0.53951889 149 29088250 45 19 340 1676
0.34101883 1.5516347 0.53677064 143 29185820 43 19 393 1667
0.34885845 1.5420815 0.53432769 132 29284460 40 19 386 1659
0.35788387 1.5380566 0.53371698 159 29381120 48 19 372 1657
0.36576951 1.5293475 0.53157943 143 29480730 43 19 356 1650
0.3735618 1.5206 0.52944189 159 29577050 48 19 334 1643
0.38172469 1.5136615 0.52791506 183 29675380 55 19 373 1638
0.39005429 1.5076025 0.52669364 157 29770750 47 19 358 1634
0.39783716 1.4996572 0.52486145 152 29870080 46 19 337 1628
0.40553728 1.4916732 0.52302927 176 29966650 53 19 358 1622
0.41366374 1.4854865 0.52180785 155 30066990 47 19 330 1618
0.42172962 1.4792565 0.52058637 183 30162580 55 19 375 1614
0.42920285 1.4711548 0.51875418 170 30260890 51 19 381 1608
0.43577811 1.4602792 0.51600593 161 30358600 48 19 301 1599
0.44473001 1.4575778 0.51600593 160 30454210 48 19 370 1599
0.45140374 1.4475471 0.51356304 150 30553530 45 19 389 1591
0.4597007 1.442935 0.51295233 205 30649490 62 19 390 1589
0.46531376 1.4301236 0.50959331 171 30749650 51 19 312 1578
0.47318196 1.4245297 0.50867724 192 30844570 58 19 383 1575
0.4816089 1.4206975 0.50837189 182 30944840 55 19 330 1574
0.4890753 1.4141147 0.50715041 182 31040840 55 19 346 1570
0.49963868 1.416477 0.5089826 203 31139640 61 19 358 1576
0.50703478 1.4097992 0.50776112 211 31236920 64 19 341 1572
0.51371384 1.4012955 0.50592893 191 31334010 58 19 347 1566
0.51831311 1.3874092 0.50226462 171 31431270 51 19 312 1554
0.52512676 1.3797514 0.50073779 176 31528470 53 19 328 1549
0.53220946 1.3729507 0.49951634 174 31628300 52 19 359 1545
0.54132128 1.3714314 0.50012708 210 31721990 63 19 369 1547
0.54689217 1.3610128 0.49768415 183 31823480 55 19 358 1539
0.55487323 1.3567499 0.4973788 191 31918720 58 19 329 1538
0.56136233 1.3489223 0.49585199 165 32019430 54 19 366 1533
0.56740594 1.3401891 0.49401981 174 32114290 57 19 334 1527
0.57561851 1.3366823 0.49401981 186 32213160 61 19 350 1527
0.58152229 1.3278896 0.49218762 173 32310420 56 19 354 1521
0.58888602 1.3225559 0.49157691 181 32408190 59 19 366 1519
0.59424698 1.3128426 0.48943937 170 32506630 55 19 352 1512
0.60149688 1.3074408 0.48882863 170 32602440 55 19 329 1510
0.60910535 1.3028624 0.48852327 192 32701420 62 19 354 1509
0.61586481 1.2965189 0.48760718 192 32797010 62 19 364 1506
0.62339544 1.2918577 0.48730183 191 32896600 62 19 352 1505
0.63047379 1.2862974 0.48669109 177 32990870 58 19 353 1503
0.63708389 1.2798461 0.48577499 161 33090630 52 19 378 1500
0.64363855 1.2733622 0.4848589 159 33186370 52 19 330 1497
0.6505717 1.2676938 0.48424819 186 33285000 61 19 382 1495
0.65789872 1.2628331 0.48394284 165 33383140 54 19 326 1494
0.66430193 1.256246 0.48302674 166 33479240 54 19 334 1491
0.67154807 1.2513068 0.48272139 197 33578970 64 19 348 1490
0.67739475 1.2438159 0.48149991 184 33675330 60 19 340 1486
0.6845541 1.2388022 0.48119456 196 33775700 64 19 330 1485
0.69028288 1.2312543 0.47997311 173 33870720 56 19 351 1481
0.69735473 1.2261674 0.47966775 189 33970820 62 19 357 1480
0.70391512 1.220215 0.47905701 190 34065390 62 19 360 1478
0.71138901 1.2158729 0.47905701 186 34163560 61 19 357 1478
0.71786577 1.2098461 0.4784463 167 34261250 54 19 320 1476
0.72527575 1.2054187 0.4784463 197 34360100 64 19 349 1476
0.73216325 1.2001324 0.47814092 165 34457870 54 19 386 1475
0.74051362 1.197238 0.47875166 206 34555140 67 19 338 1477
0.74582541 1.1894428 0.47753021 177 34653040 58 19 379 1473
0.75310963 1.1848441 0.47753021 184 34748540 60 19 390 1473
0.75985056 1.1793998 0.47722483 185 34849030 60 19 317 1472
0.76603317 1.1731197 0.47661412 185 34943390 60 19 384 1470
0.77269214 1.1676027 0.47630876 184 35043730 60 19 360 1469
0.78090107 1.1644223 0.47691947 196 35139640 64 19 394 1471
0.78749669 1.1588207 0.47661412 203 35238400 66 19 370 1470
0.79189581 1.1500429 0.47508731 182 35336640 59 19 369 1465
0.80056971 1.1475067 0.47600338 204 35433150 66 19 347 1468
0.80594897 1.1402385 0.47508731 201 35531620 65 19 353 1465
0.81293017 1.1352719 0.47508731 196 35628310 64 19 356 1465
0.81988078 1.1302625 0.47508731 204 35727620 66 19 384 1465
0.8279267 1.1267463 0.47569802 231 35823860 75 19 372 1467
0.83255345 1.1185873 0.47447658 180 35923340 59 19 360 1463
0.8388288 1.1126969 0.47417122 166 36018680 54 19 339 1462
0.84506327 1.1067716 0.47386584 174 36119350 57 19 336 1461
0.85183835 1.1015655 0.47386584 185 36215260 60 19 350 1461
0.85858142 1.096318 0.47386584 200 36315030 65 19 373 1461
0.86233717 1.087296 0.47233903 161 36411810 52 19 394 1456
0.87018359 1.0834703 0.47294977 205 36508730 67 19 360 1458
0.87681526 1.0781106 0.47294977 201 36606610 65 19 367 1458
0.88159996 1.0705034 0.47203368 205 36703050 67 19 358 1455
0.8905884 1.0680014 0.47325513 215 36803050 70 19 359 1459
0.89467031 1.0596042 0.47203368 189 36898710 62 19 400 1455
0.90177315 1.054819 0.47233903 189 36998120 62 19 381 1456
0.90822846 1.049266 0.47233903 183 37093180 60 19 365 1456
0.91590333 1.0451069 0.47294977 199 37192280 65 19 348 1458
0.92229879 1.0394673 0.47294977 188 37288830 61 19 372 1458
0.92802376 1.0330796 0.47264439 180 37387880 59 19 385 1457
0.93434519 1.0273659 0.47264439 195 37485870 63 19 336 1457
0.94063139 1.0216136 0.47264439 190 37584350 62 19 387 1457
0.94623357 1.0151256 0.47233903 181 37682470 59 19 394 1456
0.95244443 1.0093005 0.47233903 203 37778980 66 19 382 1456
0.96190506 1.0068833 0.47386584 231 37878590 75 19 373 1461
0.9687264 1.0016472 0.47417122 219 37973180 71 19 351 1462
0.97352308 0.9943223 0.47356048 195 38073350 63 19 315 1460
0.98295426 0.99171495 0.47508731 219 38168560 71 19 380 1465
0.98902082 0.98566496 0.47508731 214 38267550 70 19 396 1465
0.99437219 0.97890919 0.47478193 207 38363740 67 19 388 1464
1.001042 0.97345394 0.47508731 229 38461350 75 19 358 1465
1.0076822 0.96795368 0.47539267 227 38559130 74 19 371 1466
1.0142927 0.96240854 0.47569802 224 38656120 73 19 391 1467
1.0201788 0.9561668 0.47569802 203 38755040 66 19 378 1467
1.0267247 0.95053667 0.47600338 203 38851850 66 19 387 1468
1.0325377 0.94421893 0.47600338 183 38951510 60 19 351 1468
1.0425481 0.94169939 0.47783557 206 39045730 67 19 356 1474
1.0490166 0.93591934 0.47814092 192 39145540 62 19 353 1475
1.0554533 0.93009531 0.4784463 200 39241050 65 19 385 1476
1.0589874 0.92172408 0.47753021 181 39340170 59 19 349 1473
1.0667876 0.91707325 0.4784463 173 39436860 56 19 361 1476
1.0745704 0.91236126 0.47936237 191 39534590 62 19 380 1479
1.0830647 0.9082008 0.48058385 216 39632210 70 19 336 1483
1.0849528 0.89849788 0.47905701 154 39728880 50 19 358 1478
1.0926551 0.8936345 0.47997311 196 39828190 64 19 351 1481
1.098858 0.88751227 0.48027846 201 39922820 65 19 345 1482
1.1080024 0.8837254 0.48180529 213 40022970 69 19 352 1487
1.1119089 0.8757304 0.48119456 180 40118300 59 19 356 1485
1.1217681 0.87240314 0.48302674 205 40218810 67 19 346 1491
1.1286094 0.86666501 0.48363745 202 40314210 66 19 353 1493
1.1346642 0.86029971 0.48394284 194 40412840 63 19 358 1494
1.1444921 0.85674953 0.48577499 223 40509330 73 19 318 1500
1.1474317 0.8480109 0.4848589 177 40607120 58 19 385 1497
1.1564571 0.84376425 0.48638573 202 40704490 66 19 336 1502
1.159296 0.83498079 0.48546964 182 40800990 59 19 344 1499
1.1674998 0.83006173 0.48669109 201 40900540 65 19 335 1503
1.1725709 0.82288247 0.48669109 211 40996350 69 19 377 1503
1.1783803 0.81621516 0.48699644 195 41097120 63 19 324 1504
1.1833663 0.80896938 0.48699644 179 41191650 58 19 359 1504
1.1914634 0.80382633 0.48821792 201 41291470 65 19 318 1508
1.1979574 0.79755741 0.48882863 201 41387580 65 19 352 1510
1.2052147 0.79176259 0.48974472 177 41485220 58 19 361 1513
1.2124459 0.7859087 0.49066082 179 41583980 58 19 330 1516
1.2188488 0.77948201 0.49127153 194 41680940 63 19 318 1518
1.2260233 0.77351516 0.49218762 189 41779930 62 19 338 1521
1.2339784 0.76799345 0.49340907 219 41876000 71 19 332 1525
1.2394785 0.7609064 0.49371445 180 41975810 59 19 314 1526
1.2457522 0.75427467 0.49432516 182 42071050 59 19 363 1528
1.2544426 0.74906141 0.49585199 158 42170540 51 19 349 1533
1.2655759 0.7452215 0.49829489 177 42265580 53 19 328 1541
1.2725939 0.73887867 0.49921098 191 42365120 58 19 349 1544
1.2828856 0.73437303 0.5013485 174 42460820 52 19 328 1551
1.2923406 0.72930002 0.50318068 163 42559590 49 19 336 1557
1.2992864 0.72274756 0.50409681 182 42657310 55 19 330 1560
1.3078694 0.71705437 0.50562358 172 42753810 52 19 348 1565
1.313082 0.70946932 0.50592893 176 42853380 53 19 354 1566
1.3216112 0.70364034 0.50745577 162 42948720 49 19 337 1571
1.3292751 0.69729018 0.50867724 174 43047890 52 19 368 1575
1.3386021 0.69174826 0.51050937 200 43141540 60 19 365 1581
1.3428214 0.68352175 0.51050937 166 43240790 50 19 349 1581
1.3537971 0.67868954 0.51295233 172 43336870 52 19 343 1589
1.3604964 0.67163682 0.51386839 196 43435840 59 19 329 1592
1.3697282 0.66577852 0.51570058 193 43533070 58 19 370 1598
1.3772221 0.65900862 0.516922 151 43630710 45 19 362 1602
1.3864064 0.65298468 0.51875418 196 43728500 59 19 344 1608
1.3955685 0.64687276 0.52058637 167 43825470 50 19 324 1614
1.4047076 0.64067292 0.52241856 166 43925330 50 19 387 1620
1.4138229 0.63438523 0.52425075 159 44021470 48 19 383 1626
1.4229138 0.62800968 0.52608293 167 44121100 50 19 342 1632
1.4319794 0.62154633 0.52791506 164 44215400 49 19 394 1638
1.4392682 0.61424625 0.52913654 179 44315180 54 19 395 1642
1.4482766 0.60761839 0.53096873 175 44409990 53 19 385 1648
1.4563777 0.60053927 0.53249556 149 44508730 45 19 356 1653
1.4644464 0.59338349 0.53402233 166 44604950 50 19 378 1658
1.4715974 0.58579838 0.53524381 177 44702910 53 19 336 1662
1.479597 0.57849526 0.53677064 188 44801030 57 19 425 1667
1.4875621 0.57111597 0.53829741 174 44897090 52 19 364 1672
1.4972738 0.5643338 0.54043496 191 44996410 58 19 374 1679
1.5024939 0.55579829 0.54104567 147 45092770 44 19 387 1681
1.5112449 0.54852247 0.54287785 185 45192350 56 19 373 1687
1.5208598 0.5414803 0.54501539 191 45286870 58 19 373 1694
1.5277487 0.53339678 0.54623687 149 45385930 45 19 379 1698
1.5381981 0.52648544 0.54867977 167 45482250 50 19 392 1706
1.5477175 0.51916236 0.55081731 163 45581180 49 19 384 1713
1.5590134 0.51233822 0.55356556 161 45678400 48 19 363 1722
1.5711898 0.50568736 0.55661923 185 45775680 52 19 351 1732
1.5788029 0.49747175 0.558146 175 45875100 49 19 360 1737
1.5927424 0.49115101 0.56181037 189 45971420 53 19 316 1749
1.5993719 0.48247185 0.56303185 176 46070320 49 19 368 1753
1.6123464 0.47562081 0.56639081 197 46164940 55 19 370 1764
1.6216377 0.46757045 0.56852835 202 46264760 57 19 366 1771
1.6308906 0.45942393 0.5706659 226 46360460 63 19 316 1778
1.6345968 0.44966161 0.57097125 203 46460260 57 19 352 1779
1.6419225 0.44086173 0.57249808 220 46557100 62 19 358 1784
1.6519643 0.43271485 0.57494098 186 46654990 52 19 356 1792
1.6592005 0.42375222 0.57646781 206 46752670 58 19 353 1797
1.6700842 0.41563976 0.57921606 195 46849290 55 19 385 1806
1.6800053 0.40718463 0.58165896 192 46948350 54 19 349 1814
1.6908118 0.39884266 0.58440721 209 47043640 59 19 353 1823
1.6997229 0.38995603 0.58654475 190 47143800 53 19 332 1830
1.710447 0.38139093 0.58929306 203 47238890 57 19 346 1839
1.72206 0.37291104 0.59234667 204 47339810 57 19 359 1849
1.7327013 0.36410642 0.59509492 214 47435720 60 19 363 1858
1.7442321 0.35537598 0.59814858 211 47534530 59 19 376 1868
1.7566546 0.34670275 0.60150754 206 47631320 58 19 390 1879
1.7681009 0.33771104 0.60456121 199 47729080 56 19 375 1889
1.7785662 0.32841823 0.60730946 218 47828200 61 19 352 1898
1.789921 0.31917754 0.61036307 239 47925240 67 19 405 1908
1.7984142 0.30932346 0.61250061 235 48024800 66 19 358 1915
1.8059142 0.29922083 0.6143328 220 48119910 51 19 368 1921
1.8114772 0.28873661 0.61555427 194 48219020 45 19 392 1925
1.8226264 0.27906415 0.61860788 204 48314120 47 19 385 1935
1.8393769 0.27009985 0.62349367 253 48413000 58 19 379 1951
1.8485426 0.25987449 0.62593657 250 48508920 58 19 379 1959
1.8633137 0.25031149 0.63021165 255 48607850 59 19 376 1973
1.8742588 0.2400903 0.63326532 252 48705110 58 19 342 1983
1.8908192 0.23043935 0.63815111 269 48803930 62 19 359 1999
1.9035479 0.2201539 0.64181548 265 48902170 61 19 365 2011
1.9152745 0.20961662 0.64517444 268 48998160 62 19 359 2022
1.9241017 0.19864833 0.64761734 242 49097070 56 19 372 2030
1.9347615 0.18776485 0.65067101 239 49191610 55 19 325 2040
1.9624288 0.17832068 0.65922117 269 49291580 62 19 387 2068
1.9710763 0.16692404 0.66166407 228 49386560 52 19 381 2076
1.9891502 0.15617971 0.66716057 249 49486670 57 19 400 2094
2.0071657 0.14521982 0.67265713 249 49583140 42 19 388 2112
2.0175202 0.13353652 0.67571074 290 49681610 50 19 415 2122
2.0268559 0.12167392 0.67845899 295 49779270 50 19 389 2131
2.0380235 0.10980546 0.68181801 295 49876410 50 19 428 2142
2.0576813 0.098218687 0.68792528 323 49974520 55 19 412 2162
2.0687106 0.086033143 0.69128424 337 50071010 58 19 425 2173
2.0806189 0.073750272 0.69494861 366 50170020 63 19 400 2185
2.092454 0.061324492 0.69861299 322 50265160 55 19 370 2197
2.0956466 0.048552271 0.69952905 382 50365090 65 19 405 2200
2.1016176 0.03579364 0.70136124 365 50460210 62 19 397 2206
2.1122715 0.023018451 0.7047202 522 50559530 100 19 423 2217
2.1142776 0.010067636 0.70533097 527 50655010 101 19 461 2219
2.1114428 -0.0029033972 0.70441484 401 50753520 69 19 369 2216
2.1104331 -0.015852362 0.70410949 366 50851790 63 19 400 2215
2.1007745 -0.028677521 0.70105588 332 50948570 57 19 400 2205
2.101511 -0.041585326 0.70136124 348 51048320 60 19 404 2206
2.0831296 -0.054021742 0.69555932 335 51143580 57 19 402 2187
2.0732412 -0.066503413 0.69250572 322 51243590 55 19 412 2177
2.0632784 -0.078865781 0.68945205 319 51338300 55 19 447 2167
2.0579991 -0.091316372 0.68792528 318 51438570 54 19 375 2162
2.0459874 -0.10337314 0.6842609 286 51534830 49 19 421 2150
2.0386593 -0.11555229 0.68212336 326 51633570 56 19 438 2143
2.0284081 -0.12746812 0.67906976 328 51731010 56 19 431 2133
2.0218875 -0.13952224 0.67723757 355 51828970 61 19 410 2127
2.0124471 -0.15128888 0.67448932 358 51926440 61 19 412 2118
2.0029385 -0.16294496 0.67174101 333 52023420 77 19 405 2109
1.993363 -0.17449006 0.66899276 307 52122170 71 19 390 2100
1.9894104 -0.18645315 0.66807669 342 52216630 79 19 407 2097
1.9797007 -0.19781008 0.66532838 331 52317210 76 19 360 2088
1.9718207 -0.20925462 0.66319084 328 52411100 76 19 380 2081
1.9591434 -0.22008164 0.65952653 293 52510790 67 19 355 2069
1.9360052 -0.22953489 0.65250319 261 52606660 60 19 343 2046
1.9345604 -0.24140967 0.65250319 284 52706170 65 19 374 2046
1.9103807 -0.25032189 0.64517444 249 52804460 57 19 355 2022
1.9106958 -0.26229677 0.64578515 274 52901920 63 19 354 2024
1.8901969 -0.27132288 0.63967794 259 52998890 60 19 349 2004
1.8724855 -0.28052863 0.63448673 245 53096200 56 19 349 1987
1.8669652 -0.29142791 0.63326532 253 53195840 58 19 331 1983
1.8529215 -0.30090234 0.62929559 229 53291330 53 19 363 1970
1.8416495 -0.31068864 0.62624192 232 53391140 53 19 374 1960
1.8322037 -0.32067502 0.62379903 227 53486130 52 19 359 1952
1.823642 -0.33072647 0.62166148 194 53586450 45 19 414 1945
1.8187704 -0.34138492 0.62074542 235 53682130 54 19 334 1942
1.8203812 -0.35326117 0.6219669 257 53780490 59 19 368 1946
1.8125765 -0.36330539 0.62013471 248 53876830 57 19 359 1940
1.8047173 -0.37326717 0.61830252 240 53973650 55 19 396 1934
1.7968044 -0.38314623 0.61647034 236 54072510 54 19 364 1928
1.7897686 -0.39314589 0.6149435 208 54169100 48 19 401 1923
1.7817489 -0.40286434 0.61311132 212 54269560 59 19 390 1917
1.7718223 -0.4120692 0.61066842 221 54364970 62 19 386 1909
1.7618501 -0.42116746 0.60822552 184 54465490 52 19 401 1901
1.7564579 -0.43129089 0.60730946 236 54561110 66 19 363 1898
1.7482374 -0.44066784 0.60547727 207 54658820 58 19 400 1892
1.7399681 -0.44996017 0.60364509 221 54754500 62 19 380 1886
1.7316507 -0.45916772 0.6018129 238 54852720 67 19 374 1880
1.7214479 -0.46779212 0.59937 251 54951080 70 19 367 1872
1.7167101 -0.47783661 0.59875929 203 55048350 57 19 367 1870
1.704586 -0.48575836 0.59570569 216 55147680 61 19 364 1860
1.6988304 -0.49541068 0.59478956 226 55242790 63 19 358 1857
1.691195 -0.50446767 0.59326273 241 55343060 68 19 388 1852
1.6835127 -0.51344967 0.59173596 240 55437000 67 19 388 1847
1.6739653 -0.5217911 0.58959842 235 55536720 66 19 357 1840
1.6698246 -0.53176427 0.58929306 244 55632780 68 19 366 1839
1.6647189 -0.54141247 0.58868229 258 55730070 72 19 382 1837
1.6541338 -0.54922187 0.5862394 235 55827730 66 19 345 1829
1.6489285 -0.55875129 0.58562869 247 55925510 69 19 358 1827
1.640968 -0.56730616 0.58410186 226 56024330 63 19 351 1822
1.6311681 -0.57515258 0.58196431 221 56121350 62 19 349 1815
1.6285048 -0.58547187 0.58226967 248 56220640 70 19 367 1816
1.6221986 -0.59447229 0.5813536 248 56317240 70 19 361 1813
1.6149513 -0.60308498 0.58013213 245 56417440 69 19 359 1809
1.6058787 -0.61095536 0.5783 241 56512220 68 19 381 1803
1.5958825 -0.61839378 0.57616246 239 56611060 67 19 345 1796
1.5938302 -0.62887192 0.57677317 247 56706130 69 19 343 1798
1.5846381 -0.63651419 0.57494098 247 56805490 69 19 346 1792
1.5745308 -0.64370781 0.57280344 241 56902650 68 19 356 1785
1.5635157 -0.65043634 0.57036054 216 56999520 61 19 377 1777
1.555109 -0.65816545 0.56883371 218 57099080 61 19 389 1772
1.5466666 -0.66581589 0.56730688 223 57196000 63 19 348 1767
1.5390618 -0.67376882 0.56608546 221 57296760 62 19 345 1763
1.5305473 -0.68126696 0.56455863 211 57391740 59 19 370 1758
1.5228668 -0.68907797 0.56333721 224 57491580 63 19 359 1754
1.5168792 -0.69761473 0.56272644 213 57586870 60 19 350 1752
1.5117072 -0.70650655 0.56242108 214 57685680 60 19 335 1751
1.5047622 -0.71454555 0.56150502 222 57782000 62 19 343 1748
1.4960595 -0.72169995 0.55997819 178 57880760 50 19 357 1743
1.491603 -0.73086601 0.55997819 194 57977520 54 19 387 1743
1.4828261 -0.73788685 0.55845135 196 58075160 55 19 384 1738
1.4697683 -0.74268371 0.55539775 178 58174200 50 19 383 1728
1.4685739 -0.75342399 0.55661923 212 58271090 59 19 344 1732
1.4630785 -0.76198161 0.55631381 218 58369930 61 19 360 1731
1.4533223 -0.76827848 0.55448169 215 58464940 65 19 358 1725
1.4460624 -0.77583295 0.55356556 219 58565840 66 19 347 1722
1.4387647 -0.78332728 0.5526495 205 58660500 62 19 366 1719
1.4322635 -0.79122108 0.55203879 204 58760140 61 19 362 1717
1.4240575 -0.79813486 0.55081731 174 58856270 52 19 340 1713
1.4199616 -0.80732769 0.55112267 235 58954810 71 19 345 1714
1.41168 -0.814125 0.54990125 196 59053280 59 19 388 1710
1.4066581 -0.82277161 0.54990125 214 59149520 65 19 356 1710
1.4015832 -0.83138722 0.54990125 216 59248080 65 19 377 1710
1.3956391 -0.83948135 0.54959583 189 59343820 57 19 381 1709
1.3912753 -0.84852421 0.54990125 207 59442880 62 19 382 1710
1.3860426 -0.85704494 0.54990125 191 59537410 58 19 386 1710
1.3799505 -0.86502826 0.54959583 202 59637260 61 19 350 1709
1.3778334 -0.87551939 0.55081731 228 59733740 69 19 385 1713
1.3692315 -0.88189727 0.54959583 204 59832980 61 19 343 1709
1.3606032 -0.88820261 0.54837441 184 59929690 55 19 368 1705
1.3535385 -0.89548492 0.54776371 191 60027780 58 19 372 1703
1.3464357 -0.90271395 0.54715294 186 60125650 56 19 387 1701
1.3392951 -0.90988958 0.54654223 198 60222780 60 19 380 1699
1.3321174 -0.91701168 0.54593152 190 60321270 57 19 380 1697
1.3256842 -0.92462403 0.54562616 199 60417120 60 19 398 1696
1.3184296 -0.93164307 0.54501539 166 60517280 50 19 357 1694
1.3111389 -0.93860799 0.54440469 179 60610910 54 19 366 1692
1.305355 -0.94663531 0.54440469 181 60710700 55 19 378 1692
1.2995219 -0.95462698 0.54440469 204 60805640 61 19 362 1692
1.2913467 -0.96087933 0.54348862 197 60905930 59 19 346 1689
1.2831438 -0.9670673 0.5425725 187 61002170 56 19 363 1686
1.275671 -0.973768 0.54196179 188 61101310 57 19 383 1684
1.2689183 -0.98099524 0.54165643 163 61198930 49 19 389 1683
1.2628751 -0.98876274 0.54165643 186 61295580 56 19 376 1683
1.2552911 -0.99531096 0.54104567 176 61394580 53 19 374 1681
1.2506464 -1.0041857 0.54165643 183 61489740 55 19 365 1683
1.2444612 -1.0118406 0.54165643 181 61588980 55 19 363 1683
1.2404362 -1.0212713 0.5425725 199 61684290 60 19 386 1686
1.2326826 -1.027645 0.54196179 180 61783530 54 19 367 1684
1.227082 -1.0358028 0.54226714 180 61880420 54 19 350 1685
1.219979 -1.0426946 0.54196179 163 61978760 49 19 337 1684
1.2106758 -1.0476705 0.54074031 145 62076840 44 19 381 1680
1.2078084 -1.0582139 0.54226714 200 62175060 60 19 372 1685
1.2005798 -1.0649737 0.54196179 164 62273840 49 19 359 1684
1.1954405 -1.0735916 0.5425725 182 62369710 55 19 363 1686
1.1888306 -1.0809065 0.5425725 172 62468530 52 19 363 1686
1.1821759 -1.0881807 0.5425725 152 62564310 46 19 372 1686
1.1747795 -1.0947653 0.54226714 152 62664020 46 19 350 1685
1.1708128 -1.1045645 0.54348862 203 62759820 61 19 368 1689
1.1619458 -1.1097564 0.5425725 148 62858900 45 19 384 1686
1.1551145 -1.116865 0.5425725 176 62956920 53 19 371 1686
1.1475588 -1.1232661 0.54226714 165 63053960 50 19 351 1685
1.141322 -1.1309559 0.5425725 174 63151270 52 19 371 1686
1.134361 -1.1379377 0.5425725 175 63248930 53 19 344 1686
1.1266887 -1.1441987 0.54226714 196 63348050 59 19 375 1685
1.1216404 -1.1531364 0.54318321 185 63444810 56 19 356 1688
1.1165247 -1.1620553 0.54409933 173 63544670 52 19 334 1691
1.1106857 -1.1702645 0.54471004 179 63639430 54 19 392 1693
1.1060915 -1.1798341 0.54593152 190 63740730 57 19 337 1697
1.1014217 -1.1893914 0.54715294 186 63836970 56 19 371 1701
1.0960329 -1.1982335 0.54806906 191 63936550 58 19 364 1704
1.08866 -1.204936 0.54806906 165 64034210 50 19 346 1704
1.0850538 -1.2158529 0.54990125 204 64131560 61 19 338 1710
1.0782033 -1.2232016 0.5502066 193 64229460 58 19 350 1711
1.0681741 -1.2269236 0.54898512 168 64326460 51 19 373 1707
1.0618687 -1.2348977 0.54959583 176 64425450 53 19 363 1709
1.0542715 -1.24139 0.54959583 169 64520510 51 19 352 1709
1.0472472 -1.2485646 0.54990125 173 64621270 52 19 358 1710
1.0432147 -1.2593638 0.55173337 217 64716390 65 19 368 1716
1.0348642 -1.2650045 0.55142802 163 64817220 49 19 340 1715
1.0276818 -1.2720708 0.55173337 177 64913230 53 19 355 1716
1.0210462 -1.2798404 0.55234414 171 65013370 51 19 356 1718
1.0149436 -1.2883239 0.55326021 155 65110090 47 19 349 1721
1.0087754 -1.2967806 0.55417627 167 65206960 50 19 366 1724
1.0013802 -1.3037006 0.55448169 167 65305470 50 19 350 1725
0.99393797 -1.3105786 0.55478704 131 65401930 39 19 356 1726
0.98873454 -1.3204615 0.55631381 158 65501600 44 19 342 1731
0.98231375 -1.3287992 0.55722994 171 65596950 48 19 327 1734
0.9741419 -1.3348016 0.55722994 163 65698250 46 19 326 1734
0.96649063 -1.3415258 0.55753529 153 65793840 43 19 379 1735
0.959346 -1.348982 0.558146 165 65893240 46 19 372 1737
0.95159847 -1.3556219 0.55845135 172 65988930 48 19 372 1738
0.94434845 -1.3629999 0.55906212 181 66087020 51 19 340 1740
0.93812001 -1.371911 0.56028354 192 66183040 54 19 326 1744
0.92968446 -1.3776414 0.56028354 147 66280780 41 19 328 1744
0.92332768 -1.3864886 0.56150502 178 66380940 50 19 355 1748
0.9168973 -1.3953093 0.56272644 174 66477000 49 19 337 1752
0.90987462 -1.4033048 0.56364256 183 66576840 51 19 343 1755
0.90227455 -1.4104648 0.56425327 185 66671130 52 19 370 1757
0.89563847 -1.419194 0.56547475 180 66771040 50 19 350 1761
0.88842529 -1.4270867 0.56639081 179 66866980 50 19 380 1764
0.88114893 -1.4349443 0.56730688 163 66966600 46 19 370 1767
0.87529135 -1.4452085 0.56913906 185 67063290 52 19 380 1773
0.86885196 -1.4546376 0.5706659 191 67160380 54 19 306 1778
0.86232972 -1.4640419 0.57219273 175 67257730 49 19 353 1783
0.85524577 -1.4725978 0.57341415 169 67354920 47 19 365 1787
0.84808928 -1.4811218 0.57463562 171 67454240 48 19 340 1791
0.83898532 -1.4862976 0.57463562 157 67551360 44 19 372 1791
0.83263165 -1.496408 0.57646781 175 67651610 49 19 351 1797
0.82572687 -1.5056616 0.57799459 171 67745430 48 19 324 1802
0.81873977 -1.5148866 0.57952142 177 67845450 50 19 342 1807
0.81167048 -1.5240824 0.58104825 194 67941110 54 19 325 1812
0.80584836 -1.535777 0.58349115 183 68038920 51 19 360 1820
0.79903734 -1.5457661 0.58532333 180 68135580 50 19 340 1826
0.79170126 -1.554881 0.58685011 197 68233500 55 19 329 1831
0.78471076 -1.5648148 0.58868229 194 68331840 54 19 337 1837
0.77720588 -1.5738677 0.59020913 193 68428730 54 19 310 1842
0.7687853 -1.581175 0.59112519 185 68528390 52 19 350 1845
0.76153952 -1.591014 0.59295738 182 68624830 51 19 335 1851
0.75460839 -1.6016846 0.59509492 197 68724340 55 19 354 1858
0.74637121 -1.6097391 0.5963164 186 68819360 52 19 374 1862
0.73925126 -1.6203506 0.59845394 205 68919890 57 19 358 1869
0.73202908 -1.6309352 0.60059148 203 69016460 57 19 385 1876
0.72393429 -1.6397504 0.60211825 201 69115770 56 19 353 1881
0.7157588 -1.6485273 0.60364509 226 69212990 63 19 386 1886
0.70712823 -1.6563901 0.60486656 241 69311040 68 19 378 1890
0.69953555 -1.6668421 0.60700411 223 69409580 63 19 409 1897
0.69074982 -1.6746231 0.60822552 231 69505500 65 19 362 1901
0.68476164 -1.6894168 0.6118899 273 69605090 77 19 371 1913
0.67367685 -1.6918178 0.61127919 213 69700950 60 19 416 1911
0.66536832 -1.7012389 0.61311132 225 69801220 63 19 400 1917
0.65696949 -1.7106216 0.6149435 212 69896720 49 19 361 1923
0.64949024 -1.7226374 0.61769181 245 69996290 56 19 379 1932
0.64089477 -1.7319471 0.61952394 250 70092510 58 19 399 1938
0.63448888 -1.7474797 0.62349367 282 70191690 65 19 368 1951
0.62215394 -1.7468559 0.6219669 251 70288100 58 19 392 1946
0.6164577 -1.7650206 0.62685269 273 70385750 63 19 383 1962
0.61179823 -1.7867833 0.63295996 343 70484430 79 19 384 1982
0.60173392 -1.7932112 0.63387603 324 70580720 75 19 348 1985
0.59280586 -1.8032004 0.63601357 354 70681590 82 19 392 1992
0.58319283 -1.8113348 0.6375404 305 70776750 70 19 371 1997
0.57350224 -1.8194191 0.63906717 335 70876970 77 19 347 2002
0.56317168 -1.825633 0.6399833 246 70973150 57 19 351 2005
0.55416518 -1.8363457 0.64242619 251 71072320 58 19 325 2013
0.5436976 -1.8424507 0.64334226 207 71169160 48 19 325 2016
0.5347631 -1.853985 0.64609057 216 71267640 50 19 355 2025
0.52622533 -1.8673112 0.64944953 204 71364210 47 19 360 2036
0.51729077 -1.8796842 0.65250319 217 71461440 50 19 337 2046
0.50723344 -1.8883396 0.65433532 196 71559930 45 19 326 2052
0.49829933 -1.9015471 0.65769434 216 71655000 50 19 342 2063
0.48898581 -1.9137932 0.66074795 204 71755660 47 19 385 2073
0.48184758 -1.9352349 0.66685522 267 71849680 62 19 373 2093
0.47356439 -1.9529594 0.67174101 284 71950030 65 19 352 2109
0.46266901 -1.9604615 0.67326784 266 72044550 45 19 373 2114
0.45340854 -1.975327 0.67723757 281 72143770 48 19 367 2127
0.44315115 -1.9864351 0.67998582 289 72241000 49 19 381 2136
0.43216771 -1.9947 0.68181801 261 72338610 45 19 387 2142
0.42188561 -2.0066314 0.68487161 277 72436450 47 19 406 2152
0.41013762 -2.011981 0.68578774 261 72532740 45 19 409 2155
0.4005608 -2.028471 0.69036818 283 72632080 48 19 376 2170
0.38954157 -2.038372 0.69281107 304 72727800 52 19 353 2178
0.37963104 -2.0547681 0.69739151 331 72827630 57 19 366 2193
0.36852676 -2.0654948 0.70013976 336 72922350 57 19 398 2202
0.35698089 -2.0742855 0.7022773 342 73022760 59 19 374 2209
0.34721705 -2.0942838 0.70807922 379 73118820 65 19 362 2228
0.33556482 -2.1038969 0.71052212 379 73217080 65 19 348 2236
0.32380763 -2.1134455 0.71296501 378 73314720 65 19 370 2244
0.31250197 -2.1266971 0.71662939 403 73413240 69 19 365 2256
0.30184525 -2.145546 0.72212589 413 73511600 71 19 365 2274
0.28905711 -2.1501887 0.72304201 339 73607890 58 19 400 2277
0.27816987 -2.1698661 0.72884387 345 73707630 59 19 420 2296
0.26647267 -2.1847644 0.73311895 377 73802720 51 19 366 2310
0.25493324 -2.2024376 0.73831016 400 73902030 54 19 391 2327
0.24276987 -2.2162652 0.74227989 366 73997640 50 19 395 2340
0.23113546 -2.2366557 0.7483871 413 74097460 56 19 418 2360
0.21805568 -2.2446659 0.75052464 381 74193980 52 19 443 2367
0.20514672 -2.2554443 0.75357831 372 74291780 51 19 462 2377
0.19292362 -2.2756362 0.75968558 399 74390750 54 19 441 2397
0.17993419 -2.2891176 0.76365525 427 74488740 58 19 422 2410
0.16664785 -2.3006253 0.76701427 430 74586950 64 19 433 2421
0.15360814 -2.3177567 0.77220541 473 74683710 73 19 454 2438
0.14001831 -2.3291109 0.77556443 509 74783810 81 19 443 2449
0.12660603 -2.3460901 0.78075558 517 74878660 83 19 416 2466
0.11285257 -2.3601384 0.78503066 510 74979060 81 19 423 2480
0.09877073 -2.3703005 0.78808433 484 75073170 75 19 358 2490
0.08525528 -2.3994102 0.7972452 528 75173140 72 19 440 2520
0.071015731 -2.416069 0.80243635 487 75269570 64 19 419 2537
0.056574941 -2.4326427 0.80762756 539 75367480 73 19 406 2554
0.041916605 -2.4481776 0.81251335 483 75467050 63 19 432 2570
0.027102683 -2.4664798 0.81831521 491 75563580 64 19 427 2589
0.012070866 -2.4856441 0.82442248 492 75662970 65 19 484 2609
-0.0031937009 -2.5028117 0.82991904 471 75759720 61 19 487 2627
-0.018642293 -2.5160761 0.83419412 499 75859460 66 19 485 2641
-0.034365304 -2.5378139 0.84121746 536 75954860 73 19 457 2664
-0.050118726 -2.5470757 0.84427106 557 76054130 77 19 442 2674
-0.06615562 -2.5629032 0.84946227 561 76150020 68 19 466 2691
-0.082717694 -2.5890985 0.85801244 533 76249480 63 19 403 2719
-0.099317648 -2.6075735 0.86411965 614 76345620 78 19 459 2739
-0.11664652 -2.6373575 0.87389129 526 76444240 62 19 451 2771
-0.13415487 -2.6632216 0.88244146 549 76542170 65 19 432 2799
-0.15209149 -2.6908705 0.89160234 473 76639840 53 19 442 2829
-0.16972235 -2.7079444 0.89740425 514 76738620 60 19 472 2848
-0.18808782 -2.7325025 0.90564901 483 76834360 55 19 489 2875
-0.20612419 -2.74839 0.91114557 433 76933630 42 19 419 2893
-0.22497521 -2.7717514 0.91908503 489 77029040 49 19 410 2919
-0.24354377 -2.7883434 0.92488688 456 77128160 45 19 434 2938
-0.26285371 -2.8104999 0.93252099 486 77224490 49 19 406 2963
-0.28263268 -2.834419 0.9407658 492 77323000 50 19 430 2990
-0.30361366 -2.8667228 0.95175886 482 77420320 48 19 451 3026
-0.32373366 -2.8875186 0.95908755 475 77517890 47 19 444 3050
-0.34523484 -2.9176311 0.9694699 474 77616320 44 19 474 3084
-0.36629674 -2.9409726 0.97771466 409 77711880 34 19 474 3111
-0.38704264 -2.9594433 0.9844327 431 77812000 39 19 464 3133
-0.40815777 -2.9787128 0.99145603 486 77906640 46 19 417 3156
-0.42965847 -2.9987762 0.99878472 435 78006930 40 19 435 3180
-0.45296526 -3.0290475 1.0094724 429 78100470 35 19 418 3215
-0.47592852 -3.0544393 1.0186334 449 78198850 41 19 388 3245
-0.50043601 -3.087183 1.0302371 438 78296060 38 19 445 3283
-0.5250476 -3.117861 1.0412302 457 78393950 41 19 419 3319
-0.54874629 -3.1408474 1.0497804 434 78491070 38 19 472 3347
-0.57325447 -3.1664705 1.0592465 461 78587680 41 19 441 3378
-0.5984475 -3.1937821 1.0693235 525 78686820 49 19 445 3411
-0.62471998 -3.2246423 1.080622 504 78782930 46 19 409 3448
-0.65493625 -3.2730412 1.0977223 527 78882250 48 19 457 3504
-0.68154144 -3.3006709 1.1081047 519 78978490 47 19 432 3538
-0.70910382 -3.3308902 1.1194031 467 79078380 41 19 479 3575
-0.73645151 -3.3581038 1.1297854 461 79174610 40 19 498 3609
-0.76457834 -3.3869636 1.1407785 475 79273550 41 19 408 3645
-0.79244167 -3.4128208 1.1508554 473 79368560 40 19 452 3678
-0.82550639 -3.4588408 1.1676505 487 79467280 42 19 440 3733
-0.86188191 -3.515681 1.1881098 459 79564620 39 19 451 3800
-0.89527255 -3.5574265 1.2036833 425 79662350 32 19 471 3851
-0.92778116 -3.5933599 1.2174246 430 79761270 35 19 445 3896
-0.95833027 -3.6198208 1.2281123 458 79856560 38 19 398 3931
-0.99895048 -3.681886 1.2507092 413 79958240 31 19 419 4005
-1.0368025 -3.7307403 1.2690309 458 80052560 38 19 463 4065
-1.0674828 -3.7517877 1.2781918 385 80152180 28 19 416 4095
-1.106437 -3.8000286 1.2965136 483 80249520 41 19 448 4155
-1.1427647 -3.8369782 1.3111711 483 80347550 41 19 414 4203
-1.1873456 -3.8991323 1.3343786 424 80444640 32 19 419 4279
-1.2262299 -3.9399669 1.3505628 422 80543450 32 19 449 4332
-1.2650831 -3.9786541 1.3661363 429 80641370 33 19 421 4383
-1.310039 -4.0342212 1.3875117 398 80737600 31 19 413 4453
-1.3542268 -4.0848637 1.4073603 371 80837570 29 19 444 4518
-1.3902425 -4.108953 1.4183534 719 80932860 79 19 535 4554
-1.411703 -4.0895429 1.4146891 685 81033340 73 19 498 4542
-1.4351896 -4.0763125 1.4131622 675 81129190 71 19 525 4537
-1.4762475 -4.112246 1.4284303 342 81229350 27 19 438 4587
-1.517146 -4.146039 1.4430878 299 81324780 24 19 417 4635
-1.5688198 -4.2071457 1.4672115 314 81422730 26 19 372 4714
-1.6202857 -4.2651005 1.490419 294 81520990 24 19 410 4790
-1.6787016 -4.3385668 1.5191232 292 81618880 26 19 407 4884
-1.7304051 -4.3919802 1.5411093 293 81717140 26 19 345 4956
-1.7867229 -4.4546432 1.5664544 242 81813430 23 19 400 5039
-1.8420755 -4.5123692 1.5902727 228 81913970 21 19 379 5117
-2.3994265 -5.7771082 2.0333543 386 82009430 58 19 433 6568
-2.4303837 -5.7517505 2.02969 429 82109840 65 19 412 6556
-2.4592409 -5.7218556 2.0244987 410 82204630 62 19 434 6539
-2.4885855 -5.6935692 2.0199184 426 82305200 60 19 452 6524
-2.5203815 -5.6712303 2.0174754 430 82400940 60 19 432 6516
-2.5512135 -5.6469798 2.0144219 416 82499430 58 19 458 6506
-2.5818429 -5.6225653 2.0113683 429 82596960 60 19 472 6496
-2.6360154 -5.6489043 2.0263309 183 82694480 27 19 351 6545
-2.7334237 -5.765142 2.0733569 136 82792520 20 19 355 6699
-2.8083987 -5.8306284 2.1026716 206 82888600 33 19 380 6795
-2.8453767 -5.8158531 2.1035879 54 82987860 8 19 300 6798
-0 -0 0 3 83083210 0 19 287 0
-0 -0 0 5 83183150 0 19 292 0
-0 -0 0 5 83278000 0 19 314 0
-0 -0 0 4 83377250 0 19 281 0
-0 -0 0 4 83474010 0 19 314 0
-0 -0 0 4 83571770 0 19 327 0
-0 -0 0 3 83670590 0 19 305 0
-0 -0 0 4 83766920 0 19 293 0
-0 -0 0 3 83864720 0 19 290 0
-0 -0 0 4 83960250 0 19 297 0
-0 -0 0 3 84060170 0 19 308 0
-0 -0 0 4 84155660 0 19 302 0
-0 -0 0 3 84256090 0 19 316 0
-0 -0 0 5 84351560 0 19 335 0
-0 -0 0 4 84450040 0 19 336 0
-0 -0 0 4 84546990 0 19 277 0
-0 -0 0 4 84644270 0 19 320 0
-0 -0 0 4 84742310 0 19 292 0
-0 -0 0 4 84840230 0 19 317 0
-0 -0 0 4 84939670 0 19 288 0
-0 -0 0 5 85034820 0 19 315 0
-0 -0 0 4 85134610 0 19 305 0
-0 -0 0 4 85228910 0 19 314 0
-0 -0 0 4 85328890 0 19 308 0
-0 -0 0 3 85425060 0 19 304 0
-0 -0 0 6 85523940 0 19 329 0
-0 -0 0 6 85623130 0 19 302 0
-0 -0 0 4 85720320 0 19 307 0
-0 -0 0 5 85817740 0 19 287 0
-0 -0 0 5 85914430 0 19 271 0
-0 -0 0 5 86013680 0 19 283 0
-0 -0 0 5 86108970 0 19 322 0
-0 -0 0 4 86209410 0 19 318 0
-3.854511 -4.9293814 2.0339651 192 86305180 29 19 347 6570
-3.8959136 -4.9198241 2.039767 262 86404690 39 19 351 6589
-3.9409168 -4.914402 2.047401 269 86501110 40 19 381 6614
