ply
format ascii 1.0
comment VCGLIB generated
element vertex 1243
property float x
property float y
property float z
property uchar red
property uchar green
property uchar blue
property uchar alpha
element face 0
property list uchar int vertex_indices
end_header
1.53212 -0.699287 -0.400326 60 60 60 255 
1.5243 -0.707038 -0.399307 68 68 68 255 
1.52081 -0.716792 -0.399562 38 38 38 255 
1.51377 -0.724851 -0.398798 36 36 36 255 
1.50495 -0.732 -0.397524 64 64 64 255 
1.4935 -0.737778 -0.395486 97 97 97 255 
1.49499 -0.749978 -0.397269 40 40 40 255 
1.48433 -0.75605 -0.395486 76 76 76 255 
1.47795 -0.76425 -0.394976 67 67 67 255 
1.47494 -0.774208 -0.395486 48 48 48 255 
1.46335 -0.779589 -0.393448 69 69 69 255 
1.45769 -0.788091 -0.393193 57 57 57 255 
1.44859 -0.794685 -0.391919 67 67 67 255 
1.44116 -0.802141 -0.391155 68 68 68 255 
1.44041 -0.813356 -0.392428 55 55 55 255 
1.43037 -0.819283 -0.3909 66 66 66 255 
1.42448 -0.827556 -0.390645 69 69 69 255 
1.4202 -0.836774 -0.3909 88 88 88 255 
1.41504 -0.845473 -0.3909 88 88 88 255 
1.40983 -0.854139 -0.3909 60 60 60 255 
1.40374 -0.862266 -0.390645 51 51 51 255 
1.39842 -0.870862 -0.390645 43 43 43 255 
1.38979 -0.877354 -0.389626 70 70 70 255 
1.38194 -0.884295 -0.388862 69 69 69 255 
1.37406 -0.891173 -0.388097 52 52 52 255 
1.36614 -0.897988 -0.387333 71 71 71 255 
1.3582 -0.904739 -0.386569 79 79 79 255 
1.35102 -0.91197 -0.386059 105 105 105 255 
1.3446 -0.919694 -0.385804 81 81 81 255 
1.33734 -0.926822 -0.385295 86 86 86 255 
1.33084 -0.934452 -0.38504 79 79 79 255 
1.3243 -0.942038 -0.384785 83 83 83 255 
1.31849 -0.950146 -0.384785 64 64 64 255 
1.31342 -0.958791 -0.38504 106 106 106 255 
1.30673 -0.966255 -0.384785 76 76 76 255 
1.30155 -0.974836 -0.38504 96 96 96 255 
1.29632 -0.98339 -0.385295 71 71 71 255 
1.28949 -0.990735 -0.38504 94 94 94 255 
1.28415 -0.999224 -0.385295 98 98 98 255 
1.27648 -1.00588 -0.384785 90 90 90 255 
1.27028 -1.0137 -0.384785 94 94 94 255 
1.26329 -1.02086 -0.384531 90 90 90 255 
1.257 -1.02859 -0.384531 78 78 78 255 
1.24992 -1.03567 -0.384276 85 85 85 255 
1.2428 -1.0427 -0.384021 67 67 67 255 
1.23638 -1.0503 -0.384021 62 62 62 255 
1.22992 -1.05787 -0.384021 75 75 75 255 
1.2234 -1.0654 -0.384021 82 82 82 255 
1.21612 -1.07224 -0.383766 92 92 92 255 
1.2088 -1.07904 -0.383511 81 81 81 255 
1.20287 -1.08708 -0.383766 70 70 70 255 
1.19546 -1.09379 -0.383511 81 81 81 255 
1.19015 -1.10242 -0.384021 78 78 78 255 
1.18336 -1.1097 -0.384021 82 82 82 255 
1.18003 -1.12028 -0.385295 59 59 59 255 
1.178 -1.1322 -0.387078 44 44 44 255 
1.16895 -1.13738 -0.386314 60 60 60 255 
1.15989 -1.14249 -0.38555 109 109 109 255 
1.15696 -1.15369 -0.387078 101 101 101 255 
1.15189 -1.16284 -0.387843 91 91 91 255 
1.14541 -1.17058 -0.388097 84 84 84 255 
1.13955 -1.17898 -0.388607 83 83 83 255 
1.13229 -1.18595 -0.388607 80 80 80 255 
1.12499 -1.19287 -0.388607 96 96 96 255 
1.117 -1.19904 -0.388352 94 94 94 255 
1.11027 -1.20659 -0.388607 75 75 75 255 
1.10285 -1.21338 -0.388607 88 88 88 255 
1.09345 -1.21796 -0.387843 112 112 112 255 
1.08851 -1.22754 -0.388862 93 93 93 255 
1.08414 -1.23785 -0.390135 79 79 79 255 
1.07841 -1.24667 -0.3909 57 57 57 255 
1.06887 -1.25106 -0.390135 107 107 107 255 
1.0649 -1.26204 -0.391664 86 86 86 255 
1.05775 -1.26929 -0.391919 94 94 94 255 
1.04872 -1.27426 -0.391409 105 105 105 255 
1.04149 -1.28142 -0.391664 74 74 74 255 
1.03361 -1.28779 -0.391664 100 100 100 255 
1.02628 -1.29487 -0.391919 90 90 90 255 
1.01773 -1.30038 -0.391664 85 85 85 255 
1.01091 -1.30813 -0.392174 86 86 86 255 
1.0052 -1.31739 -0.393193 101 101 101 255 
0.997098 -1.32353 -0.393193 91 91 91 255 
0.991834 -1.33351 -0.394467 80 80 80 255 
0.985915 -1.3427 -0.395486 79 79 79 255 
0.978223 -1.3495 -0.39574 90 90 90 255 
0.971046 -1.35706 -0.39625 86 86 86 255 
0.963813 -1.36457 -0.39676 82 82 82 255 
0.958177 -1.37443 -0.398033 74 74 74 255 
0.94918 -1.37949 -0.397779 95 95 95 255 
0.942321 -1.38769 -0.398543 96 96 96 255 
0.939153 -1.40149 -0.401091 63 63 63 255 
0.93213 -1.40965 -0.401855 71 71 71 255 
0.923989 -1.41616 -0.40211 87 87 87 255 
0.91789 -1.42587 -0.403384 68 68 68 255 
0.910673 -1.43393 -0.404148 87 87 87 255 
0.903903 -1.44277 -0.405167 68 68 68 255 
0.896552 -1.45076 -0.405931 77 77 77 255 
0.889639 -1.45954 -0.40695 90 90 90 255 
0.884637 -1.47161 -0.408989 61 61 61 255 
0.875099 -1.47618 -0.408734 72 72 72 255 
0.868455 -1.4857 -0.410008 51 51 51 255 
0.860765 -1.49352 -0.410772 99 99 99 255 
0.853012 -1.5013 -0.411536 88 88 88 255 
0.845196 -1.50904 -0.412301 84 84 84 255 
0.839178 -1.52013 -0.414084 82 82 82 255 
0.834436 -1.53376 -0.416632 64 64 64 255 
0.826829 -1.54226 -0.417651 73 73 73 255 
0.820498 -1.5533 -0.419434 70 70 70 255 
0.813618 -1.56346 -0.420963 73 73 73 255 
0.806205 -1.57273 -0.422237 52 52 52 255 
0.797408 -1.57937 -0.422746 43 43 43 255 
0.789416 -1.5877 -0.423765 74 74 74 255 
0.781775 -1.59687 -0.425039 79 79 79 255 
0.774887 -1.60774 -0.426822 90 90 90 255 
0.767483 -1.61771 -0.428351 36 36 36 255 
0.758764 -1.62502 -0.429115 63 63 63 255 
0.751189 -1.63492 -0.430644 79 79 79 255 
0.744314 -1.64656 -0.432682 96 96 96 255 
0.73576 -1.65463 -0.433701 73 73 73 255 
-0 -0 -0 252 252 252 255 
-0 -0 -0 251 251 251 255 
-0 -0 -0 251 251 251 255 
-0 -0 -0 251 251 251 255 
-0 -0 -0 250 250 250 255 
-0 -0 -0 251 251 251 255 
-0 -0 -0 252 252 252 255 
-0 -0 -0 250 250 250 255 
-0 -0 -0 251 251 251 255 
-0 -0 -0 252 252 252 255 
-0 -0 -0 252 252 252 255 
-0 -0 -0 250 250 250 255 
-0 -0 -0 251 251 251 255 
-0 -0 -0 251 251 251 255 
-0 -0 -0 252 252 252 255 
-0 -0 -0 252 252 252 255 
-0 -0 -0 253 253 253 255 
-0 -0 -0 251 251 251 255 
-0 -0 -0 251 251 251 255 
-0 -0 -0 251 251 251 255 
-0 -0 -0 251 251 251 255 
-0 -0 -0 252 252 252 255 
-0 0 -0 251 251 251 255 
-0 0 -0 251 251 251 255 
-0 0 -0 252 252 252 255 
-0 -0 -0 250 250 250 255 
-0 0 -0 252 252 252 255 
-0 0 -0 252 252 252 255 
-0 0 -0 252 252 252 255 
-0 0 -0 247 247 247 255 
-0 0 -0 250 250 250 255 
-0 0 -0 251 251 251 255 
-0 0 -0 252 252 252 255 
-0 0 -0 253 253 253 255 
-0 0 -0 254 254 254 255 
-0 0 -0 252 252 252 255 
-0 0 -0 251 251 251 255 
-0 0 -0 253 253 253 255 
-0 0 -0 253 253 253 255 
-0 0 -0 252 252 252 255 
-0 0 -0 252 252 252 255 
-0 0 -0 252 252 252 255 
-0 0 -0 255 255 255 255 
-0 0 -0 0 0 0 255 
-0 0 -0 0 0 0 255 
-0 0 -0 0 0 0 255 
-0 0 -0 252 252 252 255 
-0 0 -0 252 252 252 255 
-0 0 -0 253 253 253 255 
-0 0 -0 251 251 251 255 
-0 0 -0 252 252 252 255 
-0 0 -0 249 249 249 255 
-0 0 -0 250 250 250 255 
-0 0 -0 246 246 246 255 
-0 0 -0 251 251 251 255 
-0 0 -0 252 252 252 255 
-0 0 -0 254 254 254 255 
-0 0 -0 253 253 253 255 
-0 0 -0 253 253 253 255 
-0 0 -0 253 253 253 255 
-0 0 -0 252 252 252 255 
-0 0 -0 252 252 252 255 
-0 0 -0 253 253 253 255 
-0 0 -0 253 253 253 255 
-0 0 -0 242 242 242 255 
-0 0 -0 249 249 249 255 
-0 0 -0 250 250 250 255 
-0 0 -0 251 251 251 255 
-0 0 -0 251 251 251 255 
-0 0 -0 246 246 246 255 
-0 0 -0 252 252 252 255 
-0 0 -0 250 250 250 255 
-0 0 -0 251 251 251 255 
-0 0 -0 251 251 251 255 
-0 0 -0 251 251 251 255 
-0 0 -0 250 250 250 255 
0.618447 1.31651 -0.372708 41 41 41 255 
0.625274 1.31008 -0.371881 56 56 56 255 
0.632463 1.30449 -0.37133 55 55 55 255 
0.639184 1.298 -0.370504 54 54 54 255 
0.647566 1.29491 -0.370779 43 43 43 255 
0.655064 1.29006 -0.370504 27 27 27 255 
0.661649 1.28345 -0.369678 65 65 65 255 
0.668177 1.27681 -0.368851 50 50 50 255 
0.674648 1.27014 -0.368025 35 35 35 255 
0.681519 1.26428 -0.367474 30 30 30 255 
0.686961 1.25585 -0.366096 33 33 33 255 
0.690463 1.24405 -0.363617 89 89 89 255 
0.699496 1.2423 -0.364444 60 60 60 255 
0.707105 1.23798 -0.364444 45 45 45 255 
0.714207 1.23279 -0.364168 52 52 52 255 
0.721758 1.22838 -0.364168 30 30 30 255 
0.729772 1.22476 -0.364444 32 32 32 255 
0.73777 1.22108 -0.364719 60 60 60 255 
0.744246 1.21489 -0.364168 20 20 20 255 
0.751686 1.2103 -0.364168 58 58 58 255 
0.757564 1.20322 -0.363342 19 19 19 255 
0.7639 1.19693 -0.362791 16 16 16 255 
0.770187 1.19061 -0.36224 14 14 14 255 
0.777478 1.18586 -0.36224 11 11 11 255 
0.784209 1.18026 -0.361964 46 46 46 255 
0.791436 1.17543 -0.361964 55 55 55 255 
0.798093 1.16976 -0.361689 35 35 35 255 
0.804709 1.16405 -0.361414 43 43 43 255 
0.811286 1.1583 -0.361138 43 43 43 255 
0.819489 1.15487 -0.361689 32 32 32 255 
0.824879 1.14748 -0.360863 39 39 39 255 
0.830774 1.14084 -0.360312 35 35 35 255 
0.836048 1.1334 -0.359485 35 35 35 255 
0.841263 1.12593 -0.358659 78 78 78 255 
0.846997 1.11922 -0.358108 66 66 66 255 
0.854433 1.11476 -0.358383 74 74 74 255 
0.858314 1.1057 -0.357006 38 38 38 255 
0.867455 1.10344 -0.358108 78 78 78 255 
0.873013 1.09659 -0.357557 33 33 33 255 
0.880931 1.09271 -0.358108 33 33 33 255 
0.888226 1.08803 -0.358383 17 17 17 255 
0.895497 1.0833 -0.358659 63 63 63 255 
0.902743 1.07852 -0.358934 37 37 37 255 
0.910586 1.07443 -0.359485 71 71 71 255 
0.916536 1.06809 -0.35921 34 34 34 255 
0.923702 1.06317 -0.359485 59 59 59 255 
0.931476 1.05893 -0.360036 61 61 61 255 
0.939233 1.05463 -0.360587 58 58 58 255 
0.943115 1.04599 -0.359485 25 25 25 255 
0.949515 1.04018 -0.359485 29 29 29 255 
0.95979 1.03858 -0.361138 51 51 51 255 
0.966801 1.03337 -0.361414 60 60 60 255 
0.970482 1.02463 -0.360312 26 26 26 255 
0.978744 1.02074 -0.361138 60 60 60 255 
0.984989 1.01471 -0.361138 50 50 50 255 
0.989177 1.00659 -0.360312 15 15 15 255 
0.99669 1.00187 -0.360863 21 21 21 255 
1.00418 0.997088 -0.361414 63 63 63 255 
1.01165 0.992255 -0.361964 64 64 64 255 
1.01772 0.986029 -0.361964 63 63 63 255 
1.02514 0.981097 -0.362515 60 60 60 255 
1.03044 0.974127 -0.36224 48 48 48 255 
1.0364 0.967786 -0.36224 46 46 46 255 
1.04302 0.962061 -0.362515 41 41 41 255 
1.04962 0.956291 -0.362791 58 58 58 255 
1.05547 0.949833 -0.362791 40 40 40 255 
1.05984 0.94206 -0.36224 23 23 23 255 
1.06704 0.936809 -0.362791 26 26 26 255 
1.07495 0.932136 -0.363617 47 47 47 255 
1.08211 0.926775 -0.364168 44 44 44 255 
1.08777 0.920117 -0.364168 34 34 34 255 
1.09561 0.915277 -0.364995 58 58 58 255 
1.1012 0.908537 -0.364995 36 36 36 255 
1.1075 0.902371 -0.36527 25 25 25 255 
1.11526 0.897369 -0.366096 50 50 50 255 
1.1215 0.891108 -0.366372 52 52 52 255 
1.12846 0.885398 -0.366923 65 65 65 255 
1.13235 0.877278 -0.366372 37 37 37 255 
1.14076 0.872653 -0.367474 59 59 59 255 
1.1484 0.867377 -0.3683 61 61 61 255 
1.15447 0.86089 -0.368576 38 38 38 255 
1.1636 0.856644 -0.369953 45 45 45 255 
1.17038 0.85062 -0.370504 73 73 73 255 
1.1748 0.842861 -0.370229 21 21 21 255 
1.18465 0.838975 -0.371881 69 69 69 255 
1.19293 0.833897 -0.372983 86 86 86 255 
1.19881 0.827108 -0.373259 68 68 68 255 
1.20704 0.821904 -0.374361 69 69 69 255 
1.21525 0.81663 -0.375462 44 44 44 255 
1.22264 0.810754 -0.376289 54 54 54 255 
1.23563 0.808508 -0.379044 78 78 78 255 
1.24138 0.801434 -0.379319 39 39 39 255 
1.24951 0.795871 -0.380421 50 50 50 255 
1.25681 0.789725 -0.381247 64 64 64 255 
1.26654 0.785042 -0.3829 68 68 68 255 
1.27215 0.777759 -0.383176 56 56 56 255 
1.28266 0.773419 -0.385104 77 77 77 255 
1.28573 0.76455 -0.384553 63 63 63 255 
1.29039 0.756646 -0.384553 54 54 54 255 
1.29917 0.751124 -0.38593 61 61 61 255 
1.31127 0.74743 -0.38841 68 68 68 255 
1.31499 0.738898 -0.388134 40 40 40 255 
1.32958 0.736415 -0.39144 78 78 78 255 
1.33745 0.730088 -0.392542 74 74 74 255 
1.3436 0.722781 -0.393093 60 60 60 255 
1.35056 0.715876 -0.393919 84 84 84 255 
1.35663 0.708467 -0.39447 75 75 75 255 
1.36693 0.703214 -0.396398 88 88 88 255 
1.37207 0.695249 -0.396674 78 78 78 255 
1.38577 0.691547 -0.399704 90 90 90 255 
1.39344 0.68473 -0.400806 85 85 85 255 
1.40194 0.678265 -0.402183 97 97 97 255 
1.41215 0.672549 -0.404111 107 107 107 255 
1.4206 0.665916 -0.405489 93 93 93 255 
1.42902 0.659204 -0.406866 62 62 62 255 
1.43829 0.652812 -0.408519 114 114 114 255 
1.44577 0.645545 -0.409621 90 90 90 255 
1.45499 0.638986 -0.411274 94 94 94 255 
1.46329 0.631956 -0.412651 89 89 89 255 
1.47068 0.624472 -0.413753 76 76 76 255 
1.47537 0.615807 -0.414028 81 81 81 255 
1.48534 0.609303 -0.415956 90 90 90 255 
1.49262 0.601618 -0.417058 107 107 107 255 
1.49986 0.593867 -0.41816 85 85 85 255 
1.50974 0.587097 -0.420089 91 91 91 255 
1.51781 0.579541 -0.421466 76 76 76 255 
1.52853 0.572923 -0.42367 96 96 96 255 
1.53833 0.565862 -0.425598 77 77 77 255 
1.54901 0.559029 -0.427802 93 93 93 255 
1.55965 0.552087 -0.430005 94 94 94 255 
1.56846 0.544403 -0.431658 82 82 82 255 
1.57723 0.536631 -0.433311 98 98 98 255 
1.58505 0.528468 -0.434688 88 88 88 255 
1.59375 0.520527 -0.436341 87 87 87 255 
1.60057 0.511913 -0.437443 81 81 81 255 
1.60735 0.503235 -0.438545 75 75 75 255 
1.61316 0.49421 -0.439371 85 85 85 255 
1.62077 0.485686 -0.440749 108 108 108 255 
1.62925 0.477359 -0.442402 86 86 86 255 
1.64231 0.470272 -0.445432 115 115 115 255 
1.64887 0.461225 -0.446534 106 106 106 255 
1.66465 0.454656 -0.45039 88 88 88 255 
1.67762 0.447166 -0.45342 89 89 89 255 
1.68499 0.438077 -0.454798 91 91 91 255 
1.69975 0.43081 -0.458379 90 90 90 255 
1.7145 0.423379 -0.46196 134 134 134 255 
1.72267 0.414204 -0.463613 126 126 126 255 
1.72892 0.404505 -0.464715 107 107 107 255 
1.73981 0.395815 -0.467194 108 108 108 255 
1.7544 0.38784 -0.470775 128 128 128 255 
1.76427 0.378688 -0.472979 105 105 105 255 
1.77691 0.370019 -0.476009 108 108 108 255 
1.78951 0.36121 -0.479039 86 86 86 255 
1.79829 0.351519 -0.480967 100 100 100 255 
1.80608 0.341555 -0.48262 90 90 90 255 
1.81476 0.331681 -0.484548 132 132 132 255 
1.82055 0.321211 -0.48565 128 128 128 255 
1.82628 0.310682 -0.486752 121 121 121 255 
1.83194 0.300095 -0.487854 122 122 122 255 
1.8404 0.289901 -0.489782 111 111 111 255 
1.8602 0.281349 -0.495016 82 82 82 255 
1.8695 0.271039 -0.49722 99 99 99 255 
1.88827 0.261953 -0.502178 52 52 52 255 
1.89174 0.250616 -0.502729 57 57 57 255 
1.90087 0.239973 -0.504933 67 67 67 255 
1.9443 0.233377 -0.517054 129 129 129 255 
1.94952 0.22188 -0.518156 172 172 172 255 
1.9604 0.21095 -0.52091 156 156 156 255 
1.97218 0.199991 -0.523941 170 170 170 255 
1.98389 0.188897 -0.526971 179 179 179 255 
1.99363 0.177494 -0.52945 164 164 164 255 
2.00522 0.166138 -0.53248 155 155 155 255 
2.0225 0.155093 -0.537163 171 171 171 255 
2.03396 0.143431 -0.540193 166 166 166 255 
2.04152 0.131385 -0.542122 157 157 157 255 
2.04996 0.119309 -0.544325 161 161 161 255 
2.06025 0.107235 -0.54708 143 143 143 255 
2.06759 0.0949044 -0.549008 145 145 145 255 
2.07198 0.0823716 -0.55011 156 156 156 255 
2.08398 0.0700522 -0.553416 172 172 172 255 
2.09398 0.0575346 -0.556171 168 168 168 255 
2.10198 0.0448545 -0.558374 149 149 149 255 
2.1099 0.0320784 -0.560578 77 77 77 255 
2.11487 0.0191786 -0.561955 136 136 136 255 
2.11783 0.00621208 -0.562782 127 127 127 255 
2.11783 -0.00678278 -0.562782 112 112 112 255 
2.10621 -0.0196776 -0.559476 139 139 139 255 
2.10317 -0.0325581 -0.55865 147 147 147 255 
2.08659 -0.0451203 -0.553967 169 169 169 255 
2.07954 -0.0577405 -0.552038 165 165 165 255 
2.0705 -0.0702121 -0.549559 161 161 161 255 
2.05274 -0.0822348 -0.544601 184 184 184 255 
2.0426 -0.0943917 -0.541846 168 168 168 255 
2.03814 -0.106725 -0.540744 158 158 158 255 
2.02881 -0.118729 -0.538265 148 148 148 255 
2.01653 -0.130439 -0.534959 165 165 165 255 
2.00802 -0.142272 -0.532756 173 173 173 255 
2.00519 -0.154444 -0.532205 154 154 154 255 
1.98984 -0.16556 -0.528073 166 166 166 255 
1.98112 -0.177087 -0.525869 168 168 168 255 
1.96851 -0.18815 -0.522563 179 179 179 255 
1.95871 -0.199356 -0.520084 185 185 185 255 
1.95076 -0.210653 -0.518156 172 172 172 255 
1.94275 -0.22186 -0.516227 187 187 187 255 
1.93753 -0.23332 -0.515126 164 164 164 255 
1.92653 -0.244003 -0.512371 131 131 131 255 
1.91165 -0.254056 -0.508514 112 112 112 255 
1.9091 -0.265649 -0.508239 91 91 91 255 
1.89983 -0.276258 -0.506035 60 60 60 255 
1.89144 -0.286905 -0.504107 47 47 47 255 
1.88395 -0.29761 -0.502454 36 36 36 255 
1.87639 -0.308234 -0.500801 46 46 46 255 
1.86973 -0.318936 -0.499424 68 68 68 255 
1.86111 -0.329236 -0.497495 44 44 44 255 
1.85243 -0.339441 -0.495567 35 35 35 255 
1.84276 -0.349375 -0.493363 45 45 45 255 
1.83492 -0.35957 -0.491711 64 64 64 255 
1.82797 -0.369873 -0.490333 65 65 65 255 
1.8219 -0.380299 -0.489231 61 61 61 255 
1.81389 -0.390262 -0.487579 67 67 67 255 
1.80583 -0.400142 -0.485926 69 69 69 255 
1.79959 -0.410362 -0.484824 91 91 91 255 
1.79142 -0.420084 -0.483171 74 74 74 255 
1.78414 -0.429946 -0.481794 82 82 82 255 
1.77587 -0.439504 -0.480141 58 58 58 255 
1.76754 -0.448977 -0.478488 52 52 52 255 
1.76103 -0.458847 -0.477386 64 64 64 255 
1.75354 -0.468407 -0.476009 53 53 53 255 
1.74507 -0.47764 -0.474356 63 63 63 255 
1.7384 -0.487304 -0.473254 46 46 46 255 
1.73076 -0.496639 -0.471877 65 65 65 255 
1.72214 -0.505629 -0.470224 75 75 75 255 
1.71256 -0.514256 -0.468296 43 43 43 255 
1.70386 -0.523067 -0.466643 59 59 59 255 
1.69603 -0.532076 -0.465266 49 49 49 255 
1.68816 -0.54101 -0.463888 20 20 20 255 
1.68115 -0.550165 -0.462786 31 31 31 255 
1.67227 -0.558647 -0.461134 6 6 6 255 
1.66699 -0.568278 -0.460583 20 20 20 255 
1.65802 -0.576606 -0.45893 76 76 76 255 
1.65083 -0.585486 -0.457828 69 69 69 255 
1.63907 -0.59267 -0.455349 59 59 59 255 
1.63089 -0.601057 -0.453971 31 31 31 255 
1.62177 -0.60903 -0.452318 62 62 62 255 
1.61261 -0.616913 -0.450666 62 62 62 255 
1.60521 -0.625403 -0.449564 54 54 54 255 
1.59777 -0.633826 -0.448462 64 64 64 255 
1.59206 -0.642899 -0.447911 41 41 41 255 
1.58097 -0.649738 -0.445707 50 50 50 255 
1.5743 -0.658317 -0.444881 43 43 43 255 
1.56669 -0.666462 -0.443779 57 57 57 255 
1.55816 -0.674157 -0.442402 56 56 56 255 
1.54959 -0.681773 -0.441024 70 70 70 255 
1.54186 -0.689702 -0.439922 59 59 59 255 
1.53585 -0.698355 -0.439371 33 33 33 255 
1.52543 -0.704948 -0.437443 84 84 84 255 
1.52107 -0.714295 -0.437443 47 47 47 255 
1.51319 -0.721962 -0.436341 81 81 81 255 
1.50614 -0.729977 -0.435515 63 63 63 255 
1.49904 -0.737934 -0.434688 78 78 78 255 
1.49276 -0.746259 -0.434137 86 86 86 255 
1.48644 -0.754536 -0.433587 87 87 87 255 
1.48093 -0.763203 -0.433311 53 53 53 255 
1.47366 -0.770941 -0.432485 36 36 36 255 
1.4672 -0.779068 -0.431934 67 67 67 255 
1.4607 -0.787145 -0.431383 69 69 69 255 
1.45331 -0.794712 -0.430556 60 60 60 255 
1.44589 -0.802217 -0.42973 97 97 97 255 
1.44178 -0.811545 -0.430005 74 74 74 255 
1.43844 -0.821328 -0.430556 39 39 39 255 
1.43004 -0.828215 -0.429455 49 49 49 255 
1.42328 -0.836001 -0.428904 73 73 73 255 
1.41812 -0.844719 -0.428904 56 56 56 255 
1.41044 -0.851915 -0.428077 87 87 87 255 
1.40437 -0.860052 -0.427802 89 89 89 255 
1.39743 -0.86764 -0.427251 86 86 86 255 
1.39126 -0.875687 -0.426975 69 69 69 255 
1.38424 -0.883175 -0.426424 59 59 59 255 
1.37961 -0.892173 -0.4267 78 78 78 255 
1.37169 -0.899042 -0.425873 56 56 56 255 
1.36615 -0.907442 -0.425873 61 61 61 255 
1.35816 -0.914199 -0.425047 55 55 55 255 
1.35173 -0.921974 -0.424772 83 83 83 255 
1.34368 -0.928614 -0.423945 57 57 57 255 
1.33795 -0.936841 -0.423945 93 93 93 255 
1.32904 -0.942811 -0.422843 77 77 77 255 
1.32167 -0.949827 -0.422292 76 76 76 255 
1.31504 -0.957354 -0.422017 72 72 72 255 
1.30914 -0.965405 -0.422017 72 72 72 255 
1.30396 -0.973994 -0.422292 92 92 92 255 
1.29796 -0.981977 -0.422292 77 77 77 255 
1.29344 -0.99109 -0.422843 91 91 91 255 
1.28809 -0.999597 -0.423119 67 67 67 255 
1.28194 -1.00748 -0.423119 70 70 70 255 
1.27573 -1.01533 -0.423119 72 72 72 255 
1.26948 -1.02314 -0.423119 67 67 67 255 
1.26392 -1.03151 -0.423394 75 75 75 255 
1.25682 -1.03864 -0.423119 74 74 74 255 
1.25043 -1.04633 -0.423119 68 68 68 255 
1.24252 -1.05274 -0.422568 57 57 57 255 
1.2353 -1.05972 -0.422292 98 98 98 255 
1.22878 -1.06728 -0.422292 99 99 99 255 
1.22365 -1.07607 -0.422843 68 68 68 255 
1.21774 -1.08419 -0.423119 82 82 82 255 
1.21107 -1.09165 -0.423119 97 97 97 255 
1.20648 -1.101 -0.423945 92 92 92 255 
1.1997 -1.10838 -0.423945 50 50 50 255 
1.19428 -1.11703 -0.424496 80 80 80 255 
1.1881 -1.125 -0.424772 69 69 69 255 
1.18118 -1.13227 -0.424772 85 85 85 255 
1.17352 -1.13883 -0.424496 80 80 80 255 
1.16514 -1.14466 -0.423945 52 52 52 255 
1.15809 -1.15179 -0.423945 68 68 68 255 
1.151 -1.15887 -0.423945 88 88 88 255 
1.14454 -1.1666 -0.424221 85 85 85 255 
1.13669 -1.17291 -0.423945 58 58 58 255 
1.13014 -1.18056 -0.424221 83 83 83 255 
1.1242 -1.18886 -0.424772 76 76 76 255 
1.11688 -1.19574 -0.424772 55 55 55 255 
1.11148 -1.20469 -0.425598 97 97 97 255 
1.10537 -1.2129 -0.426149 70 70 70 255 
1.09919 -1.22109 -0.4267 80 80 80 255 
1.09296 -1.22925 -0.427251 82 82 82 255 
1.08539 -1.23593 -0.427251 83 83 83 255 
1.07905 -1.24402 -0.427802 80 80 80 255 
1.07202 -1.25135 -0.428077 58 58 58 255 
1.06495 -1.25863 -0.428353 78 78 78 255 
1.05844 -1.26662 -0.428904 94 94 94 255 
1.05065 -1.27309 -0.428904 57 57 57 255 
1.04464 -1.28175 -0.42973 60 60 60 255 
1.03917 -1.29113 -0.430832 106 106 106 255 
1.03063 -1.29673 -0.430556 96 96 96 255 
1.02443 -1.30529 -0.431383 88 88 88 255 
1.01699 -1.31231 -0.431658 55 55 55 255 
1.01068 -1.32082 -0.432485 57 57 57 255 
1.00545 -1.33083 -0.433862 48 48 48 255 
0.996695 -1.3362 -0.433587 66 66 66 255 
0.987336 -1.34074 -0.433036 100 100 100 255 
0.98192 -1.35066 -0.434413 92 92 92 255 
0.975298 -1.359 -0.435239 81 81 81 255 
0.969723 -1.36888 -0.436617 68 68 68 255 
0.963511 -1.37795 -0.437719 70 70 70 255 
0.957225 -1.387 -0.43882 63 63 63 255 
0.950322 -1.39523 -0.439647 67 67 67 255 
0.943354 -1.40343 -0.440473 54 54 54 255 
0.934725 -1.40919 -0.440473 72 72 72 255 
0.927115 -1.41651 -0.441024 72 72 72 255 
0.919451 -1.42378 -0.441575 48 48 48 255 
0.911732 -1.43102 -0.442126 85 85 85 255 
0.904471 -1.43903 -0.442953 88 88 88 255 
0.897653 -1.44782 -0.444054 74 74 74 255 
0.891263 -1.4574 -0.445432 68 68 68 255 
0.884293 -1.46613 -0.446534 46 46 46 255 
0.877741 -1.47566 -0.447911 60 60 60 255 
0.869644 -1.48267 -0.448462 59 59 59 255 
0.863904 -1.4938 -0.45039 75 75 75 255 
0.858537 -1.50575 -0.452594 65 65 65 255 
0.855414 -1.52188 -0.456175 116 116 116 255 
0.84746 -1.52962 -0.457001 82 82 82 255 
0.838981 -1.53648 -0.457552 44 44 44 255 
0.835012 -1.55175 -0.460858 74 74 74 255 
0.82773 -1.56109 -0.462235 50 50 50 255 
0.819027 -1.56784 -0.462786 66 66 66 255 
0.812476 -1.57882 -0.464715 54 54 54 255 
0.80495 -1.58806 -0.466092 70 70 70 255 
0.797341 -1.59727 -0.467469 60 60 60 255 
0.790074 -1.60731 -0.469122 89 89 89 255 
0.783133 -1.61818 -0.47105 78 78 78 255 
0.774846 -1.62642 -0.472152 75 75 75 255 
0.766896 -1.6355 -0.47353 97 97 97 255 
0.759267 -1.64541 -0.475182 64 64 64 255 
0.750749 -1.65354 -0.476284 66 66 66 255 
0.741767 -1.66074 -0.477111 70 70 70 255 
0.733113 -1.66878 -0.478213 46 46 46 255 
-0 -0 -0 247 247 247 255 
-0 -0 -0 94 94 94 255 
-0 -0 -0 229 229 229 255 
-0 -0 -0 251 251 251 255 
-0 -0 -0 252 252 252 255 
-0 -0 -0 251 251 251 255 
-0 -0 -0 250 250 250 255 
-0 -0 -0 252 252 252 255 
-0 -0 -0 252 252 252 255 
-0 -0 -0 252 252 252 255 
-0 -0 -0 251 251 251 255 
-0 -0 -0 251 251 251 255 
-0 -0 -0 252 252 252 255 
-0 -0 -0 251 251 251 255 
-0 -0 -0 250 250 250 255 
-0 -0 -0 252 252 252 255 
-0 -0 -0 252 252 252 255 
-0 -0 -0 250 250 250 255 
-0 -0 -0 252 252 252 255 
-0 -0 -0 252 252 252 255 
-0 -0 -0 252 252 252 255 
-0 -0 -0 250 250 250 255 
-0 -0 -0 252 252 252 255 
-0 -0 -0 250 250 250 255 
-0 -0 -0 251 251 251 255 
-0 -0 -0 252 252 252 255 
-0 -0 -0 251 251 251 255 
-0 -0 -0 247 247 247 255 
-0 -0 -0 251 251 251 255 
-0 -0 -0 252 252 252 255 
-0 -0 -0 252 252 252 255 
-0 -0 -0 252 252 252 255 
-0 -0 -0 251 251 251 255 
-0 -0 -0 251 251 251 255 
-0 -0 -0 252 252 252 255 
-0 0 -0 252 252 252 255 
-0 0 -0 251 251 251 255 
-0 0 -0 251 251 251 255 
-0 0 -0 251 251 251 255 
-0 0 -0 252 252 252 255 
-0 0 -0 253 253 253 255 
-0 0 -0 250 250 250 255 
-0 0 -0 251 251 251 255 
-0 0 -0 253 253 253 255 
-0 0 -0 253 253 253 255 
-0 0 -0 252 252 252 255 
-0 0 -0 251 251 251 255 
-0 0 -0 252 252 252 255 
-0 0 -0 251 251 251 255 
-0 0 -0 251 251 251 255 
-0 0 -0 251 251 251 255 
-0 0 -0 251 251 251 255 
-0 0 -0 249 249 249 255 
-0 0 -0 251 251 251 255 
-0 0 -0 250 250 250 255 
-0 0 -0 248 248 248 255 
-0 0 -0 253 253 253 255 
-0 0 -0 253 253 253 255 
-0 0 -0 252 252 252 255 
-0 0 -0 253 253 253 255 
-0 0 -0 252 252 252 255 
-0 0 -0 253 253 253 255 
-0 0 -0 253 253 253 255 
-0 0 -0 252 252 252 255 
-0 0 -0 249 249 249 255 
-0 0 -0 251 251 251 255 
-0 0 -0 245 245 245 255 
-0 0 -0 252 252 252 255 
-0 0 -0 249 249 249 255 
-0 0 -0 250 250 250 255 
-0 0 -0 251 251 251 255 
-0 0 -0 251 251 251 255 
-0 0 -0 252 252 252 255 
-0 0 -0 252 252 252 255 
-0 0 -0 252 252 252 255 
-0 0 -0 251 251 251 255 
-0 0 -0 251 251 251 255 
-0 0 -0 251 251 251 255 
-0 0 -0 250 250 250 255 
-0 0 -0 251 251 251 255 
-0 0 -0 253 253 253 255 
-0 0 -0 252 252 252 255 
-0 0 -0 250 250 250 255 
-0 0 -0 252 252 252 255 
-0 0 -0 251 251 251 255 
-0 0 -0 252 252 252 255 
-0 0 -0 252 252 252 255 
-0 0 -0 249 249 249 255 
-0 0 -0 251 251 251 255 
-0 0 -0 251 251 251 255 
0.614918 1.32341 -0.418329 58 58 58 255 
0.623026 1.31961 -0.418329 36 36 36 255 
0.630697 1.31491 -0.418027 9 9 9 255 
0.636654 1.30674 -0.416514 28 28 28 255 
0.642534 1.29854 -0.415001 27 27 27 255 
0.648768 1.29117 -0.413791 19 19 19 255 
0.655372 1.28462 -0.412884 40 40 40 255 
0.660597 1.27551 -0.411068 47 47 47 255 
0.669749 1.27396 -0.411976 22 22 22 255 
0.677102 1.26898 -0.411673 12 12 12 255 
0.680313 1.25644 -0.408648 63 63 63 255 
0.691701 1.25891 -0.411068 31 31 31 255 
0.698946 1.25381 -0.410766 28 28 28 255 
0.703325 1.2437 -0.408648 41 41 41 255 
0.712849 1.24266 -0.409858 4 4 4 255 
0.718052 1.23415 -0.408346 40 40 40 255 
0.726585 1.23136 -0.408951 10 10 10 255 
0.732651 1.22443 -0.408043 23 23 23 255 
0.739654 1.2191 -0.407741 33 33 33 255 
0.745113 1.2113 -0.40653 8 8 8 255 
0.751518 1.20509 -0.405925 19 19 19 255 
0.756852 1.19724 -0.404715 40 40 40 255 
0.763667 1.19177 -0.404413 44 44 44 255 
0.76575 1.17908 -0.401387 66 66 66 255 
0.777181 1.18072 -0.403808 50 50 50 255 
0.784412 1.17593 -0.403808 9 9 9 255 
0.791076 1.17031 -0.403505 32 32 32 255 
0.79716 1.16386 -0.4029 39 39 39 255 
0.803741 1.15816 -0.402597 34 34 34 255 
0.80808 1.14932 -0.401085 43 43 43 255 
0.815117 1.14434 -0.401085 42 42 42 255 
0.818763 1.13469 -0.399269 75 75 75 255 
0.827404 1.13195 -0.400177 54 54 54 255 
0.834334 1.12685 -0.400177 53 53 53 255 
0.838936 1.11867 -0.398967 91 91 91 255 
0.849835 1.1188 -0.401085 48 48 48 255 
0.857268 1.11432 -0.401387 39 39 39 255 
0.864677 1.10979 -0.40169 66 66 66 255 
0.872063 1.10521 -0.401992 54 54 54 255 
0.878828 1.09983 -0.401992 44 44 44 255 
0.884356 1.09294 -0.401387 58 58 58 255 
0.892258 1.08897 -0.401992 10 10 10 255 
0.898312 1.08274 -0.40169 19 19 19 255 
0.905554 1.07794 -0.401992 24 24 24 255 
0.909673 1.06946 -0.400782 59 59 59 255 
0.918714 1.06674 -0.401992 33 33 33 255 
0.925242 1.06108 -0.401992 27 27 27 255 
0.93047 1.05396 -0.401387 49 49 49 255 
0.937556 1.04894 -0.40169 54 54 54 255 
0.945258 1.04458 -0.402295 33 33 33 255 
0.951004 1.03806 -0.401992 18 18 18 255 
0.959306 1.03429 -0.4029 36 36 36 255 
0.966289 1.02908 -0.403202 30 30 30 255 
0.973902 1.02451 -0.403808 47 47 47 255 
0.98017 1.01852 -0.403808 3 3 3 255 
0.987068 1.01316 -0.40411 38 38 38 255 
0.992595 1.00641 -0.403808 47 47 47 255 
0.998076 0.999629 -0.403505 31 31 31 255 
1.00283 0.99215 -0.4029 53 53 53 255 
1.0089 0.985978 -0.4029 39 39 39 255 
1.01493 0.979769 -0.4029 41 41 41 255 
1.02162 0.974179 -0.403202 12 12 12 255 
1.02757 0.967892 -0.403202 60 60 60 255 
1.03349 0.961569 -0.403202 47 47 47 255 
1.04078 0.956495 -0.403808 50 50 50 255 
1.04663 0.950091 -0.403808 41 41 41 255 
1.05315 0.944285 -0.40411 56 56 56 255 
1.06036 0.939065 -0.404715 45 45 45 255 
1.06682 0.933166 -0.405018 46 46 46 255 
1.0718 0.925982 -0.404715 76 76 76 255 
1.07819 0.920005 -0.405018 77 77 77 255 
1.08528 0.914596 -0.405623 48 48 48 255 
1.0916 0.908527 -0.405925 49 49 49 255 
1.09716 0.901812 -0.405925 56 56 56 255 
1.10415 0.89626 -0.40653 67 67 67 255 
1.11187 0.89125 -0.407438 31 31 31 255 
1.12181 0.887948 -0.409253 39 39 39 255 
1.13175 0.884556 -0.411068 10 10 10 255 
1.14094 0.880496 -0.412581 44 44 44 255 
1.14936 0.875781 -0.413791 44 44 44 255 
1.157 0.870425 -0.414699 47 47 47 255 
1.16385 0.864442 -0.415304 44 44 44 255 
1.16837 0.856723 -0.415001 63 63 63 255 
1.1767 0.851764 -0.416212 47 47 47 255 
1.18501 0.846736 -0.417422 34 34 34 255 
1.1933 0.841637 -0.418632 30 30 30 255 
1.20001 0.835384 -0.419237 27 27 27 255 
1.20669 0.829081 -0.419842 43 43 43 255 
1.21492 0.823792 -0.421052 28 28 28 255 
1.21836 0.815266 -0.420447 49 49 49 255 
1.22493 0.808821 -0.421052 48 48 48 255 
1.23227 0.802844 -0.42196 52 52 52 255 
1.23798 0.795781 -0.422262 39 39 39 255 
1.24445 0.789186 -0.422867 64 64 64 255 
1.25251 0.783548 -0.424077 51 51 51 255 
1.26298 0.779336 -0.426195 66 66 66 255 
1.26855 0.772065 -0.426498 47 47 47 255 
1.28063 0.768661 -0.429221 9 9 9 255 
1.28779 0.762239 -0.430128 52 52 52 255 
1.29657 0.756714 -0.431641 67 67 67 255 
1.30119 0.748744 -0.431641 33 33 33 255 
1.31074 0.743554 -0.433456 46 46 46 255 
1.31861 0.737349 -0.434666 35 35 35 255 
1.32394 0.729702 -0.434969 39 39 39 255 
1.33678 0.726092 -0.437994 67 67 67 255 
1.3429 0.718771 -0.438599 60 60 60 255 
1.35404 0.714056 -0.44102 65 65 65 255 
1.36263 0.70792 -0.442532 67 67 67 255 
1.37034 0.701273 -0.443742 63 63 63 255 
1.37547 0.693279 -0.444045 75 75 75 255 
1.38397 0.686933 -0.445558 91 91 91 255 
1.39074 0.679677 -0.446465 95 95 95 255 
1.39574 0.671542 -0.446768 87 87 87 255 
1.40501 0.665399 -0.448583 38 38 38 255 
1.41512 0.659568 -0.450701 65 65 65 255 
1.42435 0.653243 -0.452516 81 81 81 255 
1.43355 0.64683 -0.454331 78 78 78 255 
1.44098 0.639559 -0.455541 74 74 74 255 
1.45012 0.63298 -0.457356 81 81 81 255 
1.46012 0.626685 -0.459474 91 91 91 255 
1.46657 0.618819 -0.460382 84 84 84 255 
1.47651 0.612349 -0.4625 93 93 93 255 
1.48466 0.605065 -0.464012 88 88 88 255 
1.49366 0.598056 -0.465827 96 96 96 255 
1.50174 0.590613 -0.46734 108 108 108 255 
1.50978 0.583093 -0.468853 96 96 96 255 
1.5169 0.575161 -0.470063 101 101 101 255 
1.52577 0.567823 -0.471878 82 82 82 255 
1.5337 0.560074 -0.473391 93 93 93 255 
1.5407 0.55193 -0.474601 95 95 95 255 
1.54946 0.544348 -0.476416 106 106 106 255 
1.55908 0.536987 -0.478534 96 96 96 255 
1.56777 0.529226 -0.480349 106 106 106 255 
1.57552 0.521082 -0.481862 83 83 83 255 
1.58504 0.513445 -0.48398 119 119 119 255 
1.59271 0.50514 -0.485492 111 111 111 255 
1.60306 0.4976 -0.487913 97 97 97 255 
1.61247 0.489678 -0.49003 55 55 55 255 
1.62002 0.48112 -0.491543 65 65 65 255 
1.63027 0.473279 -0.493963 71 71 71 255 
1.63865 0.464814 -0.495779 79 79 79 255 
1.65066 0.457273 -0.498804 68 68 68 255 
1.65988 0.448863 -0.500922 95 95 95 255 
1.6709 0.440838 -0.503645 104 104 104 255 
1.68189 0.432695 -0.506367 69 69 69 255 
1.69006 0.423744 -0.508183 73 73 73 255 
1.69912 0.414934 -0.5103 53 53 53 255 
1.70905 0.406247 -0.512721 80 80 80 255 
1.71895 0.397453 -0.515141 68 68 68 255 
1.72601 0.387932 -0.516654 91 91 91 255 
1.73767 0.379346 -0.519679 98 98 98 255 
1.75023 0.370826 -0.523007 160 160 160 255 
1.75994 0.361597 -0.525427 184 184 184 255 
1.76867 0.352079 -0.527545 190 190 190 255 
1.7811 0.34318 -0.530873 187 187 187 255 
1.79161 0.333798 -0.533596 183 183 183 255 
1.80489 0.324799 -0.537226 186 186 186 255 
1.81436 0.315005 -0.539646 194 194 194 255 
1.82284 0.304953 -0.541764 179 179 179 255 
1.83503 0.295406 -0.545092 176 176 176 255 
1.84623 0.285577 -0.548117 197 197 197 255 
1.8555 0.275346 -0.550538 162 162 162 255 
1.86093 0.264484 -0.551748 191 191 191 255 
1.87385 0.254576 -0.555378 181 181 181 255 
1.88578 0.244398 -0.558706 194 194 194 255 
1.89387 0.233625 -0.560824 187 187 187 255 
1.90379 0.22298 -0.563547 184 184 184 255 
1.91933 0.21284 -0.568085 195 195 195 255 
1.93008 0.202031 -0.57111 191 191 191 255 
1.94267 0.191281 -0.574741 187 187 187 255 
1.9571 0.180556 -0.578976 202 202 202 255 
1.97052 0.16958 -0.582909 198 198 198 255 
1.98577 0.158595 -0.587447 167 167 167 255 
2.00002 0.147361 -0.591683 167 167 167 255 
2.00659 0.13546 -0.593498 187 187 187 255 
2.02832 0.124386 -0.600154 173 173 173 255 
2.02809 0.111887 -0.599851 186 186 186 255 
2.05159 0.100515 -0.607112 150 150 150 255 
2.06074 0.0882746 -0.609835 151 151 151 255 
2.07267 0.076025 -0.613465 139 139 139 255 
2.08072 0.0635235 -0.615885 140 140 140 255 
2.08774 0.0509047 -0.618003 120 120 120 255 
2.09755 0.0382486 -0.621029 100 100 100 255 
2.09679 0.025368 -0.620726 124 124 124 255 
2.09786 0.0125056 -0.621029 84 84 84 255 
2.09218 -0.000354589 -0.619213 45 45 45 255 
2.07975 -0.0130894 -0.61528 66 66 66 255 
2.072 -0.0257404 -0.61286 90 90 90 255 
2.06227 -0.0382576 -0.609835 120 120 120 255 
2.05628 -0.0507582 -0.60802 116 116 116 255 
2.05212 -0.0632493 -0.606809 117 117 117 255 
2.04408 -0.0755428 -0.604389 108 108 108 255 
2.03786 -0.0878258 -0.602574 87 87 87 255 
2.03157 -0.100035 -0.600759 102 102 102 255 
2.01665 -0.111679 -0.596221 61 61 61 255 
2.00166 -0.123144 -0.591683 69 69 69 255 
2.00277 -0.135556 -0.592288 113 113 113 255 
2 -0.147698 -0.591683 123 123 123 255 
1.9886 -0.159109 -0.588355 105 105 105 255 
1.98759 -0.171308 -0.588355 127 127 127 255 
1.98365 -0.183232 -0.587447 135 135 135 255 
1.97111 -0.194254 -0.583817 132 132 132 255 
1.95851 -0.20513 -0.580186 135 135 135 255 
1.94774 -0.216072 -0.577161 143 143 143 255 
1.92934 -0.225987 -0.571715 152 152 152 255 
1.9213 -0.23699 -0.569597 149 149 149 255 
1.90375 -0.246658 -0.564454 112 112 112 255 
1.89464 -0.257293 -0.562034 123 123 123 255 
1.88926 -0.268369 -0.560824 139 139 139 255 
1.88475 -0.27953 -0.559916 124 124 124 255 
1.8717 -0.289318 -0.556286 143 143 143 255 
1.8586 -0.298956 -0.552655 170 170 170 255 
1.85297 -0.309718 -0.551445 159 159 159 255 
1.84634 -0.320257 -0.549933 155 155 155 255 
1.8359 -0.330043 -0.54721 170 170 170 255 
1.83103 -0.340772 -0.546302 153 153 153 255 
1.82049 -0.350361 -0.543579 177 177 177 255 
1.80989 -0.359833 -0.540856 173 173 173 255 
1.79925 -0.369189 -0.538134 164 164 164 255 
1.79415 -0.379623 -0.537226 161 161 161 255 
1.78621 -0.389394 -0.535411 169 169 169 255 
1.77821 -0.399082 -0.533596 174 174 174 255 
1.77201 -0.409119 -0.532385 181 181 181 255 
1.77039 -0.420207 -0.532688 184 184 184 255 
1.76593 -0.430606 -0.532083 188 188 188 255 
1.76048 -0.440733 -0.531175 198 198 198 255 
1.75682 -0.451287 -0.530873 201 201 201 255 
1.75218 -0.461569 -0.530268 176 176 176 255 
1.74564 -0.471309 -0.529058 178 178 178 255 
1.72251 -0.476375 -0.522402 110 110 110 255 
1.71589 -0.485888 -0.521192 67 67 67 255 
1.70922 -0.495338 -0.519981 88 88 88 255 
1.70432 -0.50527 -0.519376 62 62 62 255 
1.69754 -0.514604 -0.518166 65 65 65 255 
1.69162 -0.524157 -0.517259 57 57 57 255 
1.68384 -0.533078 -0.515746 54 54 54 255 
1.67691 -0.542218 -0.514536 74 74 74 255 
1.67084 -0.551595 -0.513628 50 50 50 255 
1.66201 -0.559998 -0.511813 54 54 54 255 
1.64773 -0.566441 -0.508183 85 85 85 255 
1.63793 -0.574318 -0.506065 88 88 88 255 
1.6299 -0.582742 -0.504552 51 51 51 255 
1.61287 -0.587804 -0.500014 40 40 40 255 
1.60923 -0.59769 -0.500014 41 41 41 255 
1.60286 -0.606534 -0.499106 37 37 37 255 
1.60178 -0.617392 -0.500014 28 28 28 255 
1.59707 -0.626859 -0.499712 24 24 24 255 
1.59054 -0.635579 -0.498804 49 49 49 255 
1.58749 -0.645688 -0.499106 44 44 44 255 
1.58614 -0.656516 -0.500014 38 38 38 255 
1.57682 -0.664004 -0.498199 47 47 47 255 
1.56746 -0.671402 -0.496384 65 65 65 255 
1.56157 -0.680242 -0.495779 49 49 49 255 
1.55388 -0.688258 -0.494568 45 45 45 255 
1.54529 -0.695812 -0.493056 36 36 36 255 
1.53753 -0.703686 -0.491846 40 40 40 255 
1.53318 -0.713107 -0.491846 16 16 16 255 
1.51845 -0.717588 -0.488215 62 62 62 255 
1.51917 -0.72938 -0.49003 23 23 23 255 
1.51209 -0.737428 -0.489123 12 12 12 255 
1.50072 -0.743291 -0.486702 47 47 47 255 
1.49273 -0.750764 -0.485492 48 48 48 255 
1.48894 -0.760344 -0.485795 25 25 25 255 
1.47579 -0.765058 -0.48277 50 50 50 255 
1.47107 -0.774099 -0.48277 45 45 45 255 
1.45874 -0.779051 -0.480047 51 51 51 255 
1.45309 -0.787531 -0.479744 51 51 51 255 
1.44406 -0.794125 -0.478231 61 61 61 255 
1.43916 -0.802971 -0.478231 49 49 49 255 
1.43421 -0.811786 -0.478231 45 45 45 255 
1.4292 -0.820571 -0.478231 45 45 45 255 
1.4225 -0.828362 -0.477626 41 41 41 255 
1.41657 -0.836588 -0.477324 61 61 61 255 
1.41141 -0.845264 -0.477324 48 48 48 255 
1.40375 -0.852418 -0.476416 59 59 59 255 
1.3985 -0.861015 -0.476416 29 29 29 255 
1.38915 -0.867046 -0.474904 48 48 48 255 
1.383 -0.875042 -0.474601 46 46 46 255 
1.3752 -0.881962 -0.473693 54 54 54 255 
1.36817 -0.88934 -0.473088 53 53 53 255 
1.36269 -0.897718 -0.473088 77 77 77 255 
1.35636 -0.905532 -0.472786 41 41 41 255 
1.34841 -0.912229 -0.471878 59 59 59 255 
1.34279 -0.920485 -0.471878 74 74 74 255 
1.33712 -0.928707 -0.471878 73 73 73 255 
1.32906 -0.935243 -0.470971 72 72 72 255 
1.32252 -0.942825 -0.470668 88 88 88 255 
1.31517 -0.949802 -0.470063 86 86 86 255 
1.30932 -0.957854 -0.470063 81 81 81 255 
1.30342 -0.96587 -0.470063 80 80 80 255 
1.29746 -0.973849 -0.470063 86 86 86 255 
1.29222 -0.98237 -0.470366 66 66 66 255 
1.28692 -0.990864 -0.470668 51 51 51 255 
1.28007 -0.998154 -0.470366 78 78 78 255 
1.27467 -1.00658 -0.470668 80 80 80 255 
1.26921 -1.01498 -0.470971 93 93 93 255 
1.26296 -1.02275 -0.470971 66 66 66 255 
1.25887 -1.0323 -0.471878 37 37 37 255 
1.25031 -1.03817 -0.470971 74 74 74 255 
1.24246 -1.04459 -0.470366 88 88 88 255 
1.23748 -1.05344 -0.470971 52 52 52 255 
1.22955 -1.05976 -0.470366 77 77 77 255 
1.22231 -1.06666 -0.470063 82 82 82 255 
1.21788 -1.07604 -0.470971 73 73 73 255 
1.21267 -1.08476 -0.471576 20 20 20 255 
1.2067 -1.09283 -0.471878 32 32 32 255 
1.20137 -1.1015 -0.472483 49 49 49 255 
1.19389 -1.1082 -0.472181 58 58 58 255 
1.18638 -1.11485 -0.471878 59 59 59 255 
1.1802 -1.12277 -0.472181 38 38 38 255 
1.17261 -1.12933 -0.471878 65 65 65 255 
1.16566 -1.1365 -0.471878 59 59 59 255 
1.15866 -1.14363 -0.471878 36 36 36 255 
1.15162 -1.15072 -0.471878 35 35 35 255 
1.14588 -1.15912 -0.472483 49 49 49 255 
1.13941 -1.16682 -0.472786 60 60 60 255 
1.13354 -1.17516 -0.473391 54 54 54 255 
1.12762 -1.18348 -0.473996 58 58 58 255 
1.1223 -1.19246 -0.474904 37 37 37 255 
1.11496 -1.19932 -0.474904 77 77 77 255 
1.10886 -1.20755 -0.475509 45 45 45 255 
1.10526 -1.21858 -0.477324 8 8 8 255 
1.0965 -1.22391 -0.476719 50 50 50 255 
1.09023 -1.23205 -0.477324 38 38 38 255 
1.0814 -1.23728 -0.476719 62 62 62 255 
1.07441 -1.24461 -0.477021 66 66 66 255 
1.06921 -1.25409 -0.478231 41 41 41 255 
1.05966 -1.25843 -0.477324 57 57 57 255 
1.05496 -1.26858 -0.478837 46 46 46 255 
1.04595 -1.27356 -0.478231 77 77 77 255 
1.04171 -1.2844 -0.480047 36 36 36 255 
1.03381 -1.29077 -0.480047 58 58 58 255 
1.02764 -1.29933 -0.480954 59 59 59 255 
1.02081 -1.30712 -0.481559 56 56 56 255 
1.01451 -1.31563 -0.482467 54 54 54 255 
1.007 -1.32259 -0.48277 50 50 50 255 
0.999435 -1.32951 -0.483072 66 66 66 255 
0.990692 -1.33485 -0.48277 69 69 69 255 
0.984167 -1.34321 -0.483677 71 71 71 255 
0.978134 -1.35232 -0.484887 53 53 53 255 
0.972025 -1.3614 -0.486097 33 33 33 255 
0.964201 -1.36812 -0.4864 45 45 45 255 
0.954161 -1.37166 -0.485492 68 68 68 255 
0.947339 -1.37985 -0.4864 91 91 91 255 
0.944714 -1.39433 -0.489728 51 51 51 255 
0.937725 -1.40248 -0.490635 60 60 60 255 
0.929624 -1.40901 -0.490938 70 70 70 255 
0.920961 -1.41469 -0.490938 94 94 94 255 
0.916882 -1.42754 -0.493661 66 66 66 255 
0.910647 -1.43717 -0.495173 74 74 74 255 
0.907347 -1.45163 -0.498501 46 46 46 255 
0.896928 -1.45474 -0.497594 70 70 70 255 
0.891438 -1.46592 -0.499712 70 70 70 255 
0.882915 -1.47218 -0.500014 82 82 82 255 
0.876281 -1.48168 -0.501527 81 81 81 255 
0.87052 -1.4928 -0.503645 63 63 63 255 
0.865129 -1.50473 -0.506065 70 70 70 255 
0.85822 -1.51416 -0.507577 84 84 84 255 
0.850302 -1.5219 -0.508485 40 40 40 255 
0.843695 -1.53211 -0.5103 52 52 52 255 
0.836994 -1.54229 -0.512116 92 92 92 255 
0.827067 -1.54655 -0.511813 70 70 70 255 
0.818889 -1.55413 -0.512721 68 68 68 255 
0.812398 -1.56505 -0.514838 78 78 78 255 
0.80278 -1.57001 -0.514838 29 29 29 255 
0.796972 -1.58258 -0.517561 72 72 72 255 
0.789775 -1.59257 -0.519376 87 87 87 255 
0.780821 -1.5991 -0.519981 57 57 57 255 
0.773049 -1.60816 -0.521494 37 37 37 255 
0.765601 -1.61805 -0.523309 26 26 26 255 
0.75766 -1.62704 -0.524822 54 54 54 255 
0.750033 -1.63686 -0.526637 34 34 34 255 
0.742704 -1.64752 -0.528755 33 33 33 255 
0.734118 -1.65554 -0.529965 64 64 64 255 
0.72622 -1.66526 -0.53178 60 60 60 255 
-0 -0 -0 251 251 251 255 
-0 -0 -0 251 251 251 255 
-0 -0 -0 251 251 251 255 
-0 -0 -0 252 252 252 255 
-0 -0 -0 252 252 252 255 
-0 -0 -0 250 250 250 255 
-0 -0 -0 252 252 252 255 
-0 -0 -0 252 252 252 255 
-0 -0 -0 252 252 252 255 
-0 -0 -0 252 252 252 255 
-0 -0 -0 252 252 252 255 
-0 -0 -0 252 252 252 255 
-0 -0 -0 252 252 252 255 
-0 -0 -0 252 252 252 255 
-0 -0 -0 251 251 251 255 
-0 0 -0 251 251 251 255 
-0 0 -0 252 252 252 255 
-0 0 -0 250 250 250 255 
-0 -0 -0 252 252 252 255 
-0 0 -0 252 252 252 255 
-0 0 -0 253 253 253 255 
-0 0 -0 253 253 253 255 
-0 0 -0 252 252 252 255 
-0 0 -0 248 248 248 255 
-0 0 -0 251 251 251 255 
-0 0 -0 252 252 252 255 
-0 0 -0 252 252 252 255 
-0 0 -0 252 252 252 255 
-0 0 -0 0 0 0 255 
-0 0 -0 254 254 254 255 
-0 0 -0 253 253 253 255 
-0 0 -0 254 254 254 255 
-0 0 -0 253 253 253 255 
-0 0 -0 254 254 254 255 
-0 0 -0 255 255 255 255 
-0 0 -0 253 253 253 255 
-0 0 -0 0 0 0 255 
-0 0 -0 0 0 0 255 
-0 0 -0 0 0 0 255 
-0 0 -0 0 0 0 255 
-0 0 -0 0 0 0 255 
-0 0 -0 0 0 0 255 
-0 0 -0 253 253 253 255 
-0 0 -0 252 252 252 255 
-0 0 -0 252 252 252 255 
-0 0 -0 251 251 251 255 
-0 0 -0 252 252 252 255 
-0 0 -0 252 252 252 255 
-0 0 -0 237 237 237 255 
-0 0 -0 253 253 253 255 
-0 0 -0 248 248 248 255 
-0 0 -0 248 248 248 255 
-0 0 -0 254 254 254 255 
-0 0 -0 254 254 254 255 
-0 0 -0 253 253 253 255 
-0 0 -0 254 254 254 255 
-0 0 -0 253 253 253 255 
-0 0 -0 252 252 252 255 
-0 0 -0 252 252 252 255 
-0 0 -0 252 252 252 255 
-0 0 -0 251 251 251 255 
-0 0 -0 253 253 253 255 
-0 0 -0 248 248 248 255 
-0 0 -0 252 252 252 255 
-0 0 -0 251 251 251 255 
-0 0 -0 253 253 253 255 
-0 0 -0 252 252 252 255 
-0 0 -0 250 250 250 255 
0.614339 1.33191 -0.454021 44 44 44 255 
0.620495 1.32383 -0.452409 38 38 38 255 
0.627388 1.31743 -0.451442 32 32 32 255 
0.634637 1.31185 -0.450797 25 25 25 255 
0.641841 1.30623 -0.450152 11 11 11 255 
0.649422 1.30142 -0.44983 38 38 38 255 
0.657395 1.29741 -0.44983 31 31 31 255 
0.66448 1.29167 -0.449185 35 35 35 255 
0.671081 1.28505 -0.448218 41 41 41 255 
0.678953 1.28091 -0.448218 33 33 33 255 
0.684562 1.27255 -0.446605 254 254 254 255 
0.690094 1.26417 -0.444993 53 53 53 255 
0.695548 1.25577 -0.443381 56 56 56 255 
0.702315 1.24982 -0.442736 1 1 1 255 
0.709034 1.24385 -0.442091 34 34 34 255 
0.71618 1.23865 -0.441769 7 7 7 255 
0.723289 1.23342 -0.441447 42 42 42 255 
0.731326 1.22977 -0.441769 247 247 247 255 
0.738858 1.22526 -0.441769 13 13 13 255 
0.74587 1.21989 -0.441447 0 0 0 255 
0.752345 1.21368 -0.440802 13 13 13 255 
0.758772 1.20744 -0.440157 3 3 3 255 
0.764643 1.20037 -0.43919 11 11 11 255 
0.770969 1.19406 -0.438545 13 13 13 255 
0.777764 1.18852 -0.438222 36 36 36 255 
0.782952 1.18056 -0.436933 244 244 244 255 
0.789654 1.17495 -0.43661 15 15 15 255 
0.796849 1.17008 -0.43661 9 9 9 255 
0.80455 1.16595 -0.436933 31 31 31 255 
0.811147 1.16022 -0.43661 244 244 244 255 
0.817705 1.15444 -0.436288 8 8 8 255 
0.82312 1.1471 -0.43532 7 7 7 255 
0.830698 1.14279 -0.435643 37 37 37 255 
0.836013 1.13538 -0.434676 25 25 25 255 
0.842964 1.13023 -0.434676 19 19 19 255 
0.849883 1.12504 -0.434676 23 23 23 255 
0.858494 1.12206 -0.435643 53 53 53 255 
0.863046 1.11378 -0.434353 8 8 8 255 
0.871031 1.10995 -0.434998 29 29 29 255 
0.877825 1.10458 -0.434998 26 26 26 255 
0.883994 1.09844 -0.434676 0 0 0 255 
0.891314 1.09373 -0.434998 48 48 48 255 
0.897407 1.08751 -0.434676 52 52 52 255 
0.902244 1.0798 -0.433708 38 38 38 255 
0.908853 1.07424 -0.433708 43 43 43 255 
0.915427 1.06865 -0.433708 17 17 17 255 
0.922586 1.06373 -0.434031 28 28 28 255 
0.929096 1.05805 -0.434031 36 36 36 255 
0.936827 1.05374 -0.434676 56 56 56 255 
0.942642 1.04727 -0.434353 5 5 5 255 
0.950324 1.04287 -0.434998 21 21 21 255 
0.956705 1.03701 -0.434998 239 239 239 255 
0.966277 1.03459 -0.43661 16 16 16 255 
0.972607 1.02864 -0.43661 8 8 8 255 
0.980208 1.02402 -0.437255 237 237 237 255 
0.987131 1.01867 -0.437577 252 252 252 255 
0.994025 1.01327 -0.4379 30 30 30 255 
0.999557 1.00648 -0.437577 63 63 63 255 
1.00571 1.00032 -0.437577 31 31 31 255 
1.00981 0.992143 -0.43661 25 25 25 255 
1.01588 0.985928 -0.43661 29 29 29 255 
1.02191 0.979676 -0.43661 23 23 23 255 
1.02996 0.975342 -0.437577 34 34 34 255 
1.03662 0.969651 -0.4379 46 46 46 255 
1.04185 0.962629 -0.437577 22 22 22 255 
1.04774 0.956219 -0.437577 9 9 9 255 
1.0578 0.953579 -0.439512 33 33 33 255 
1.06575 0.948961 -0.440479 61 61 61 255 
1.07084 0.941778 -0.440157 255 255 255 255 
1.07732 0.935811 -0.440479 29 29 29 255 
1.08447 0.930418 -0.441124 14 14 14 255 
1.09088 0.924359 -0.441447 21 21 21 255 
1.09653 0.917648 -0.441447 21 21 21 255 
1.10433 0.912714 -0.442414 254 254 254 255 
1.11284 0.908318 -0.443704 17 17 17 255 
1.11987 0.902662 -0.444348 10 10 10 255 
1.12686 0.896954 -0.444993 20 20 20 255 
1.13606 0.892951 -0.446605 9 9 9 255 
1.14675 0.890032 -0.448862 42 42 42 255 
1.15069 0.881826 -0.448218 28 28 28 255 
1.15683 0.875321 -0.44854 30 30 30 255 
1.16218 0.868206 -0.44854 18 18 18 255 
1.16901 0.862184 -0.449185 19 19 19 255 
1.17428 0.854995 -0.449185 29 29 29 255 
1.18181 0.849433 -0.450152 50 50 50 255 
1.19085 0.844908 -0.451764 40 40 40 255 
1.19679 0.838129 -0.452087 22 22 22 255 
1.20502 0.832926 -0.453377 9 9 9 255 
1.21402 0.828188 -0.454989 31 31 31 255 
1.22222 0.822841 -0.456278 37 37 37 255 
1.23118 0.817949 -0.457891 54 54 54 255 
1.23697 0.810899 -0.458213 51 51 51 255 
1.2451 0.805353 -0.459503 35 35 35 255 
1.2548 0.800758 -0.461437 54 54 54 255 
1.26289 0.795065 -0.462727 63 63 63 255 
1.26936 0.788301 -0.463372 25 25 25 255 
1.2774 0.782479 -0.464662 55 55 55 255 
1.28622 0.777077 -0.466274 31 31 31 255 
1.29178 0.769656 -0.466596 60 60 60 255 
1.29892 0.763156 -0.467563 30 30 30 255 
1.30767 0.757548 -0.469176 37 37 37 255 
1.31558 0.751391 -0.470465 66 66 66 255 
1.32264 0.744701 -0.471433 73 73 73 255 
1.33215 0.739332 -0.473367 54 54 54 255 
1.34164 0.733874 -0.475302 76 76 76 255 
1.34945 0.727428 -0.476592 73 73 73 255 
1.35807 0.721359 -0.478204 77 77 77 255 
1.36666 0.715211 -0.479816 89 89 89 255 
1.37438 0.70855 -0.481106 72 72 72 255 
1.38208 0.701821 -0.482395 58 58 58 255 
1.39059 0.695449 -0.484007 71 71 71 255 
1.39823 0.688579 -0.485297 103 103 103 255 
1.40583 0.681642 -0.486587 90 90 90 255 
1.4134 0.674637 -0.487877 98 98 98 255 
1.4218 0.667969 -0.489489 81 81 81 255 
1.42931 0.660824 -0.490779 92 92 92 255 
1.4385 0.654399 -0.492713 92 92 92 255 
1.44508 0.646722 -0.49368 98 98 98 255 
1.45162 0.63899 -0.494648 95 95 95 255 
1.45986 0.631955 -0.49626 87 87 87 255 
1.46719 0.624472 -0.49755 88 88 88 255 
1.47623 0.617655 -0.499484 66 66 66 255 
1.48087 0.608946 -0.499807 120 120 120 255 
1.49072 0.602336 -0.502064 80 80 80 255 
1.49878 0.594928 -0.503676 88 88 88 255 
1.50505 0.586754 -0.504643 111 111 111 255 
1.51216 0.578865 -0.505933 88 88 88 255 
1.51922 0.570911 -0.507222 73 73 73 255 
1.52536 0.562564 -0.50819 86 86 86 255 
1.53145 0.554162 -0.509157 95 95 95 255 
1.53839 0.546025 -0.510447 122 122 122 255 
1.54261 0.536887 -0.510769 130 130 130 255 
1.55483 0.530476 -0.513994 167 167 167 255 
1.56793 0.524237 -0.51754 186 186 186 255 
1.57741 0.516675 -0.519797 188 188 188 255 
1.58325 0.507856 -0.520765 183 183 183 255 
1.58634 0.498132 -0.520765 186 186 186 255 
1.59751 0.490898 -0.523666 198 198 198 255 
1.60593 0.482727 -0.525601 184 184 184 255 
1.6143 0.47447 -0.527536 193 193 193 255 
1.63083 0.468488 -0.532372 196 196 196 255 
